1.046160936355590820e+00;6.723746657371520996e-02;-1.340754985809326172e+00;1.654334369050047826e-06;3.963381232097162865e-07;1.000000000000000000e+00;6.000000000000000000e+00
1.241726756095886230e+00;5.216947793960571289e-01;-1.537533998489379883e+00;-1.626072958060831297e-06;-3.684050113861303544e-07;-1.000000000000000000e+00;6.000000000000000000e+00
1.400211691856384277e+00;9.196676015853881836e-01;-1.340756058692932129e+00;1.626072958060831297e-06;3.684050113861303544e-07;1.000000000000000000e+00;6.000000000000000000e+00
2.029359340667724609e+00;6.802460551261901855e-01;-1.388006210327148438e+00;7.028555870056152344e-01;6.946861147880554199e-01;-1.529877334833145142e-01;6.000000000000000000e+00
7.565458305180072784e-03;-3.466632664203643799e-01;-1.474131226539611816e+00;-7.029612064361572266e-01;7.112282514572143555e-01;8.810457643448899034e-07;6.000000000000000000e+00
7.307091951370239258e-01;2.422309480607509613e-02;-1.340754032135009766e+00;1.626072958060831297e-06;3.684050113861303544e-07;1.000000000000000000e+00;6.000000000000000000e+00
1.955191612243652344e+00;6.506152749061584473e-01;-1.465979456901550293e+00;-1.088081523776054382e-01;-1.075421869754791260e-01;-9.882284998893737793e-01;6.000000000000000000e+00
1.778916358947753906e+00;8.621880412101745605e-01;-1.468367099761962891e+00;3.668391704559326172e-02;3.625874966382980347e-02;-9.986689090728759766e-01;6.000000000000000000e+00
1.769620776176452637e+00;7.423268556594848633e-01;-1.455528259277343750e+00;-1.088067889213562012e-01;-1.075408905744552612e-01;-9.882287383079528809e-01;6.000000000000000000e+00
1.485490202903747559e-01;-6.506267189979553223e-01;-1.340752959251403809e+00;1.626072958060831297e-06;3.684050113861303544e-07;1.000000000000000000e+00;6.000000000000000000e+00
2.266017436981201172e+00;5.336272716522216797e-01;-9.391953945159912109e-01;9.008038640022277832e-01;4.097347855567932129e-01;-1.437700688838958740e-01;6.000000000000000000e+00
1.198124647140502930e+00;8.414042592048645020e-01;-1.486945033073425293e+00;-7.026324272155761719e-01;7.108954787254333496e-01;-3.058290667831897736e-02;6.000000000000000000e+00
6.685156822204589844e-01;3.066035807132720947e-01;-1.393349409103393555e+00;-7.029612064361572266e-01;7.112282514572143555e-01;8.810457643448899034e-07;6.000000000000000000e+00
1.086514949798583984e+00;-1.822319328784942627e-01;-1.537533044815063477e+00;-1.654334369050047826e-06;-3.963381232097162865e-07;-1.000000000000000000e+00;6.000000000000000000e+00
1.803328037261962891e+00;9.052429795265197754e-01;-1.404774546623229980e+00;7.028551101684570312e-01;6.946855187416076660e-01;-1.529927253723144531e-01;6.000000000000000000e+00
1.077164769172668457e+00;-4.101682603359222412e-01;-1.340754747390747070e+00;1.640203663555439562e-06;3.823715815087780356e-07;1.000000000000000000e+00;6.000000000000000000e+00
2.044079065322875977e+00;4.390681684017181396e-01;-1.340756416320800781e+00;1.626072958060831297e-06;3.684050113861303544e-07;1.000000000000000000e+00;6.000000000000000000e+00
1.982214927673339844e+00;7.314126491546630859e-01;-1.372262358665466309e+00;7.028561234474182129e-01;6.946867108345031738e-01;-1.529828011989593506e-01;6.000000000000000000e+00
1.489408850669860840e+00;7.388552185148000717e-04;-1.537533998489379883e+00;-1.626072958060831297e-06;-3.684050113861303544e-07;-1.000000000000000000e+00;6.000000000000000000e+00
1.495580077171325684e+00;1.135401129722595215e+00;-8.888047337532043457e-01;-7.029612064361572266e-01;7.112282514572143555e-01;8.810457643448899034e-07;6.000000000000000000e+00
4.637645483016967773e-01;-3.906454145908355713e-01;-1.340754032135009766e+00;1.626072958060831297e-06;3.684050113861303544e-07;1.000000000000000000e+00;6.000000000000000000e+00
1.897765398025512695e+00;1.801367104053497314e-01;-1.342185616493225098e+00;1.308254301548004150e-01;-1.323619782924652100e-01;9.825299382209777832e-01;6.000000000000000000e+00
1.256597399711608887e+00;1.545447707176208496e+00;-7.820797562599182129e-01;2.497365176677703857e-01;2.468325942754745483e-01;9.363254308700561523e-01;6.000000000000000000e+00
1.076812267303466797e+00;-6.535681486129760742e-01;-1.533216476440429688e+00;2.972237467765808105e-01;-3.007209599018096924e-01;-9.062145948410034180e-01;6.000000000000000000e+00
1.535179495811462402e+00;1.153950691223144531e+00;-1.423307418823242188e+00;9.003800898790359497e-02;9.877068996429443359e-01;-1.277822554111480713e-01;6.000000000000000000e+00
2.090499877929687500e+00;6.573705077171325684e-01;-1.210986733436584473e+00;7.028555870056152344e-01;6.946861147880554199e-01;-1.529878079891204834e-01;6.000000000000000000e+00
1.546729803085327148e+00;1.234179854393005371e+00;-1.049355030059814453e+00;9.341598153114318848e-01;3.288237452507019043e-01;-1.386371403932571411e-01;6.000000000000000000e+00
1.475036703050136566e-02;-6.748804450035095215e-01;-1.537531018257141113e+00;-1.626072958060831297e-06;-3.684050113861303544e-07;-1.000000000000000000e+00;6.000000000000000000e+00
4.483163058757781982e-01;-1.023228287696838379e+00;-1.537531971931457520e+00;-1.626072958060831297e-06;-3.684050113861303544e-07;-1.000000000000000000e+00;6.000000000000000000e+00
-2.864938974380493164e-02;-4.919468462467193604e-01;-1.537531018257141113e+00;-1.626072958060831297e-06;-3.684050113861303544e-07;-1.000000000000000000e+00;6.000000000000000000e+00
2.083107471466064453e+00;6.565198898315429688e-01;-7.757728099822998047e-01;1.088136583566665649e-01;1.075476258993148804e-01;9.882273077964782715e-01;6.000000000000000000e+00
2.214199453592300415e-01;-3.093724548816680908e-01;-1.340754032135009766e+00;1.626072958060831297e-06;3.684050113861303544e-07;1.000000000000000000e+00;6.000000000000000000e+00
1.464234471321105957e+00;1.070713400840759277e+00;-9.639173150062561035e-01;-9.007973670959472656e-01;-4.097461402416229248e-01;1.437786668539047241e-01;6.000000000000000000e+00
8.483628630638122559e-01;3.783503472805023193e-01;-1.537533044815063477e+00;2.085743471980094910e-03;1.967217959463596344e-02;-9.998043179512023926e-01;6.000000000000000000e+00
7.502771615982055664e-01;-5.221939682960510254e-01;-1.467424631118774414e+00;7.112281322479248047e-01;7.029612064361572266e-01;-1.415482643096765969e-06;6.000000000000000000e+00
1.428400158882141113e+00;-1.453104466199874878e-01;-1.349924445152282715e+00;4.078166186809539795e-01;4.030753374099731445e-01;8.192775845527648926e-01;6.000000000000000000e+00
5.594604015350341797e-01;-3.291326165199279785e-01;-1.419197678565979004e+00;7.112281322479248047e-01;7.029612064361572266e-01;-1.415482643096765969e-06;6.000000000000000000e+00
7.464609146118164062e-01;-5.643978714942932129e-01;-1.343220353126525879e+00;2.431067079305648804e-01;2.402797788381576538e-01;9.397684335708618164e-01;6.000000000000000000e+00
1.917989253997802734e+00;2.434622049331665039e-01;-1.340756058692932129e+00;8.803679607808589935e-03;-8.905142545700073242e-03;9.999216198921203613e-01;6.000000000000000000e+00
1.711704969406127930e+00;6.395097374916076660e-01;-1.340756058692932129e+00;1.654334369050047826e-06;3.963381232097162865e-07;1.000000000000000000e+00;6.000000000000000000e+00
1.421414852142333984e+00;7.381792664527893066e-01;-1.537533998489379883e+00;-1.626072958060831297e-06;-3.684050113861303544e-07;-1.000000000000000000e+00;6.000000000000000000e+00
1.029036402702331543e+00;5.515394210815429688e-01;-1.340754985809326172e+00;1.626072958060831297e-06;3.684050113861303544e-07;1.000000000000000000e+00;6.000000000000000000e+00
1.518240451812744141e+00;5.271481871604919434e-01;-1.537533998489379883e+00;-1.640203663555439562e-06;-3.823715815087780356e-07;-1.000000000000000000e+00;6.000000000000000000e+00
1.842321276664733887e+00;9.299223423004150391e-01;-1.113564133644104004e+00;7.028555870056152344e-01;6.946861147880554199e-01;-1.529876589775085449e-01;6.000000000000000000e+00
1.128075942397117615e-01;-3.676012456417083740e-01;-1.340752959251403809e+00;1.626072958060831297e-06;3.684050113861303544e-07;1.000000000000000000e+00;6.000000000000000000e+00
1.609095096588134766e+00;-1.553725004196166992e-01;-1.406103491783142090e+00;7.029612064361572266e-01;-7.112282514572143555e-01;-8.810457643448899034e-07;6.000000000000000000e+00
1.985284924507141113e+00;4.534862935543060303e-01;-1.333926677703857422e+00;-7.028553485870361328e-01;-6.946857571601867676e-01;1.529902964830398560e-01;6.000000000000000000e+00
1.294495444744825363e-02;-7.641544938087463379e-01;-1.346727013587951660e+00;-3.007192313671112061e-01;-2.972249686717987061e-01;9.062147736549377441e-01;6.000000000000000000e+00
1.422694921493530273e+00;6.972711086273193359e-01;-1.537533998489379883e+00;-1.626072958060831297e-06;-3.684050113861303544e-07;-1.000000000000000000e+00;6.000000000000000000e+00
1.350894927978515625e+00;-1.850141137838363647e-01;-1.340754985809326172e+00;1.626072958060831297e-06;3.684050113861303544e-07;1.000000000000000000e+00;6.000000000000000000e+00
-1.215724498033523560e-01;-6.193662881851196289e-01;-1.344196915626525879e+00;-3.007192611694335938e-01;-2.972249388694763184e-01;9.062148332595825195e-01;6.000000000000000000e+00
1.379137277603149414e+00;1.169007062911987305e+00;-8.696486353874206543e-01;-7.028560042381286621e-01;-6.946865320205688477e-01;1.529838591814041138e-01;6.000000000000000000e+00
-1.294234097003936768e-01;-6.541287302970886230e-01;-1.453303575515747070e+00;-7.112281322479248047e-01;-7.029612064361572266e-01;1.415482643096765969e-06;6.000000000000000000e+00
1.077723860740661621e+00;5.274576544761657715e-01;-1.537533044815063477e+00;-1.626072958060831297e-06;-3.684050113861303544e-07;-1.000000000000000000e+00;6.000000000000000000e+00
1.228125095367431641e+00;-5.081670284271240234e-01;-1.531992912292480469e+00;2.972237467765808105e-01;-3.007209599018096924e-01;-9.062145948410034180e-01;6.000000000000000000e+00
1.776012778282165527e+00;8.775526285171508789e-01;-1.345767259597778320e+00;3.007256388664245605e-01;2.972290217876434326e-01;9.062113165855407715e-01;6.000000000000000000e+00
1.054664254188537598e+00;1.422859430313110352e+00;-1.207654237747192383e+00;-7.028560638427734375e-01;-6.946865916252136230e-01;1.529837697744369507e-01;6.000000000000000000e+00
7.189503908157348633e-01;-1.488668322563171387e-01;-1.537533044815063477e+00;-1.654334369050047826e-06;-3.963381232097162865e-07;-1.000000000000000000e+00;6.000000000000000000e+00
1.414040446281433105e+00;-2.253374457359313965e-01;-1.340754985809326172e+00;1.640203663555439562e-06;3.823715815087780356e-07;1.000000000000000000e+00;6.000000000000000000e+00
1.330239176750183105e+00;1.402274131774902344e+00;-1.321317315101623535e+00;7.028560638427734375e-01;6.946864724159240723e-01;-1.529838293790817261e-01;6.000000000000000000e+00
6.491483449935913086e-01;2.874621152877807617e-01;-1.431110501289367676e+00;-7.029612064361572266e-01;7.112282514572143555e-01;8.810457643448899034e-07;6.000000000000000000e+00
1.661752104759216309e+00;7.991428971290588379e-01;-1.250742793083190918e+00;-7.028557658195495605e-01;-6.946863532066345215e-01;1.529853641986846924e-01;6.000000000000000000e+00
1.817317128181457520e+00;7.830554246902465820e-02;-1.349641203880310059e+00;4.030750691890716553e-01;-4.078136682510375977e-01;8.192791938781738281e-01;6.000000000000000000e+00
8.248704075813293457e-01;4.545533955097198486e-01;-1.455859541893005371e+00;-3.363088071346282959e-01;9.417517781257629395e-01;1.995628196027610102e-07;6.000000000000000000e+00
7.468015551567077637e-01;-5.188832879066467285e-01;-1.456012129783630371e+00;-7.112281322479248047e-01;-7.029612064361572266e-01;1.415482643096765969e-06;6.000000000000000000e+00
1.689924597740173340e+00;3.501091301441192627e-01;-1.340756058692932129e+00;1.668464960857818369e-06;4.103046933323639678e-07;1.000000000000000000e+00;6.000000000000000000e+00
1.061129093170166016e+00;1.703055262565612793e+00;-1.191877484321594238e+00;7.028554677963256836e-01;6.946859359741210938e-01;-1.529890596866607666e-01;6.000000000000000000e+00
1.276051282882690430e+00;1.265076637268066406e+00;-9.070181250572204590e-01;-7.028554081916809082e-01;-6.946859359741210938e-01;1.529890596866607666e-01;6.000000000000000000e+00
6.378965973854064941e-01;-4.589737057685852051e-01;-1.342210888862609863e+00;1.348242759704589844e-01;1.332559734582901001e-01;9.818682670593261719e-01;6.000000000000000000e+00
1.819045394659042358e-01;-8.314312100410461426e-01;-1.537531018257141113e+00;-1.626072958060831297e-06;-3.684050113861303544e-07;-1.000000000000000000e+00;6.000000000000000000e+00
1.086449265480041504e+00;5.208044126629829407e-02;-1.340754985809326172e+00;1.640203663555439562e-06;3.823715815087780356e-07;1.000000000000000000e+00;6.000000000000000000e+00
1.213806271553039551e+00;-5.574137568473815918e-01;-1.474289536476135254e+00;7.029612064361572266e-01;-7.112282514572143555e-01;-8.810457643448899034e-07;6.000000000000000000e+00
7.591623812913894653e-02;-3.466946780681610107e-01;-1.537531137466430664e+00;-1.760570518672466278e-02;1.781073771417140961e-02;-9.996863603591918945e-01;6.000000000000000000e+00
1.140921831130981445e+00;6.871730685234069824e-01;-1.340754985809326172e+00;-8.800402283668518066e-03;8.905909024178981781e-03;9.999216198921203613e-01;6.000000000000000000e+00
1.149474740028381348e+00;7.918809056282043457e-01;-1.379537582397460938e+00;-6.882141232490539551e-01;6.963079571723937988e-01;2.037560939788818359e-01;6.000000000000000000e+00
1.852972745895385742e+00;3.800366520881652832e-01;-1.537533998489379883e+00;-1.626072958060831297e-06;-3.684050113861303544e-07;-1.000000000000000000e+00;6.000000000000000000e+00
8.693042397499084473e-01;1.627177834510803223e+00;-1.260422348976135254e+00;-9.903056621551513672e-01;9.807939082384109497e-02;9.836243838071823120e-02;6.000000000000000000e+00
1.645530700683593750e+00;1.074546098709106445e+00;-1.360955953598022461e+00;7.028566598892211914e-01;6.946872472763061523e-01;-1.529778838157653809e-01;6.000000000000000000e+00
1.416493177413940430e+00;-1.008423566818237305e-01;-1.396446824073791504e+00;-7.112281322479248047e-01;-7.029612064361572266e-01;1.415482643096765969e-06;6.000000000000000000e+00
5.382506251335144043e-01;2.085842192173004150e-02;-1.537532210350036621e+00;-1.640203663555439562e-06;-3.823715815087780356e-07;-1.000000000000000000e+00;6.000000000000000000e+00
1.059409618377685547e+00;3.792430460453033447e-01;-1.537533044815063477e+00;-1.626072958060831297e-06;-3.684050113861303544e-07;-1.000000000000000000e+00;6.000000000000000000e+00
2.191162109375000000e+00;5.652045607566833496e-01;-1.167036175727844238e+00;7.028555870056152344e-01;6.946861147880554199e-01;-1.529878675937652588e-01;6.000000000000000000e+00
1.627247333526611328e+00;9.100074172019958496e-01;-9.058492183685302734e-01;-7.028551101684570312e-01;-6.946855187416076660e-01;1.529927253723144531e-01;6.000000000000000000e+00
2.154904365539550781e+00;6.756370663642883301e-01;-8.200120329856872559e-01;6.977134943008422852e-01;6.896033883094787598e-01;1.940180361270904541e-01;6.000000000000000000e+00
1.395686507225036621e+00;8.705546706914901733e-02;-1.340754985809326172e+00;1.654334369050047826e-06;3.963381232097162865e-07;1.000000000000000000e+00;6.000000000000000000e+00
6.479380726814270020e-01;-4.131789207458496094e-01;-1.508831977844238281e+00;-6.445251703262329102e-01;-6.370331048965454102e-01;-4.228191375732421875e-01;6.000000000000000000e+00
1.175098299980163574e+00;5.844063758850097656e-01;-1.537533998489379883e+00;-1.626072958060831297e-06;-3.684050113861303544e-07;-1.000000000000000000e+00;6.000000000000000000e+00
1.246965169906616211e+00;7.067856192588806152e-02;-1.480671286582946777e+00;-7.112281322479248047e-01;-7.029612064361572266e-01;1.415482643096765969e-06;6.000000000000000000e+00
1.148615002632141113e+00;7.690827250480651855e-01;-1.526198387145996094e+00;-4.519762098789215088e-01;4.572899639606475830e-01;-7.659003734588623047e-01;6.000000000000000000e+00
1.493261218070983887e+00;1.285394549369812012e+00;-1.103087425231933594e+00;7.028560042381286621e-01;6.946865320205688477e-01;-1.529837846755981445e-01;6.000000000000000000e+00
1.846566438674926758e+00;8.498758673667907715e-01;-1.442524075508117676e+00;6.233314275741577148e-01;6.160868406295776367e-01;-4.815547168254852295e-01;6.000000000000000000e+00
5.909793376922607422e-01;-3.596622049808502197e-01;-1.378948807716369629e+00;-6.963060498237609863e-01;-6.882128715515136719e-01;2.037665545940399170e-01;6.000000000000000000e+00
2.066008090972900391e+00;4.462569653987884521e-01;-1.340756416320800781e+00;1.626072958060831297e-06;3.684050113861303544e-07;1.000000000000000000e+00;6.000000000000000000e+00
1.482486605644226074e+00;1.082406401634216309e+00;-8.147416114807128906e-01;-9.313159584999084473e-01;-3.340581655502319336e-01;1.451057046651840210e-01;6.000000000000000000e+00
1.524606943130493164e+00;6.007782369852066040e-02;-1.537533998489379883e+00;-1.626072958060831297e-06;-3.684050113861303544e-07;-1.000000000000000000e+00;6.000000000000000000e+00
1.878156781196594238e+00;8.115295767784118652e-01;-1.440691947937011719e+00;7.112281322479248047e-01;7.029612064361572266e-01;-1.415482643096765969e-06;6.000000000000000000e+00
2.591995298862457275e-01;-1.035444259643554688e+00;-1.517006874084472656e+00;-5.826970934867858887e-01;-5.759234428405761719e-01;-5.733901262283325195e-01;6.000000000000000000e+00
1.487392425537109375e+00;3.270745277404785156e-01;-1.537533998489379883e+00;-1.626072958060831297e-06;-3.684050113861303544e-07;-1.000000000000000000e+00;6.000000000000000000e+00
1.540132761001586914e+00;1.231721878051757812e+00;-1.098654389381408691e+00;9.341638684272766113e-01;3.288121223449707031e-01;-1.386376470327377319e-01;6.000000000000000000e+00
2.012956619262695312e+00;7.166647315025329590e-01;-1.297990322113037109e+00;7.028551101684570312e-01;6.946855187416076660e-01;-1.529927700757980347e-01;6.000000000000000000e+00
2.752756774425506592e-01;-7.680755853652954102e-01;-1.537531971931457520e+00;-1.626072958060831297e-06;-3.684050113861303544e-07;-1.000000000000000000e+00;6.000000000000000000e+00
5.278804302215576172e-01;-3.520117998123168945e-01;-1.536477446556091309e+00;1.348207294940948486e-01;1.332548558712005615e-01;-9.818688631057739258e-01;6.000000000000000000e+00
7.830147743225097656e-01;-4.159501567482948303e-02;-1.537533044815063477e+00;-1.626072958060831297e-06;-3.684050113861303544e-07;-1.000000000000000000e+00;6.000000000000000000e+00
1.151866912841796875e+00;7.956840991973876953e-01;-1.457158803939819336e+00;-7.029612064361572266e-01;7.112282514572143555e-01;8.810457643448899034e-07;6.000000000000000000e+00
1.391000628471374512e+00;-2.060197740793228149e-01;-1.537533998489379883e+00;-1.626072958060831297e-06;-3.684050113861303544e-07;-1.000000000000000000e+00;6.000000000000000000e+00
8.099227547645568848e-01;-1.495423167943954468e-01;-1.340754032135009766e+00;1.626072958060831297e-06;3.684050113861303544e-07;1.000000000000000000e+00;6.000000000000000000e+00
1.029850840568542480e+00;-2.334865480661392212e-01;-1.340754151344299316e+00;1.640203663555439562e-06;3.823715815087780356e-07;1.000000000000000000e+00;6.000000000000000000e+00
2.193679332733154297e+00;4.224164485931396484e-01;-9.342151880264282227e-01;7.029612064361572266e-01;-7.112282514572143555e-01;-8.810457643448899034e-07;6.000000000000000000e+00
7.182052135467529297e-01;-3.053308129310607910e-01;-1.537533044815063477e+00;-1.654334369050047826e-06;-3.963381232097162865e-07;-1.000000000000000000e+00;6.000000000000000000e+00
1.364195942878723145e+00;5.801210645586252213e-03;-1.341911911964416504e+00;-8.001357316970825195e-02;-7.908477634191513062e-02;9.936515092849731445e-01;6.000000000000000000e+00
4.550389051437377930e-01;9.397867321968078613e-02;-1.378502964973449707e+00;-6.882141232490539551e-01;6.963079571723937988e-01;2.037560045719146729e-01;6.000000000000000000e+00
1.439380288124084473e+00;7.019287347793579102e-01;-1.340756058692932129e+00;1.626072958060831297e-06;3.684050113861303544e-07;1.000000000000000000e+00;6.000000000000000000e+00
1.065818905830383301e+00;2.112418711185455322e-01;-1.532710552215576172e+00;3.007217943668365479e-01;2.972275316715240479e-01;-9.062131047248840332e-01;6.000000000000000000e+00
1.440337896347045898e+00;1.395628929138183594e+00;-8.098368048667907715e-01;6.829426288604736328e-01;6.750040650367736816e-01;2.792111337184906006e-01;6.000000000000000000e+00
4.719683825969696045e-01;-5.152357816696166992e-01;-1.537531971931457520e+00;-1.626072958060831297e-06;-3.684050113861303544e-07;-1.000000000000000000e+00;6.000000000000000000e+00
2.621022462844848633e-01;-2.344781905412673950e-01;-1.340752959251403809e+00;1.626072958060831297e-06;3.684050113861303544e-07;1.000000000000000000e+00;6.000000000000000000e+00
1.747126817703247070e+00;6.837437152862548828e-01;-1.382521629333496094e+00;-7.045479416847229004e-01;-6.963587999343872070e-01;1.367352902889251709e-01;6.000000000000000000e+00
2.192943096160888672e+00;4.403007328510284424e-01;-1.356722593307495117e+00;6.891162395477294922e-01;-3.435853123664855957e-01;6.380187273025512695e-01;6.000000000000000000e+00
6.152598857879638672e-01;7.184465527534484863e-01;-1.524283766746520996e+00;-4.572938978672027588e-01;-4.519776701927185059e-01;-7.658971548080444336e-01;6.000000000000000000e+00
1.088045239448547363e+00;-5.130611062049865723e-01;-1.537533044815063477e+00;-1.654334369050047826e-06;-3.963381232097162865e-07;-1.000000000000000000e+00;6.000000000000000000e+00
1.373196959495544434e+00;1.070957064628601074e+00;-1.371644377708435059e+00;-3.597009778022766113e-01;-9.324707388877868652e-01;-3.336945921182632446e-02;6.000000000000000000e+00
8.766908645629882812e-01;-1.366453170776367188e-01;-1.340754032135009766e+00;1.626072958060831297e-06;3.684050113861303544e-07;1.000000000000000000e+00;6.000000000000000000e+00
9.387426972389221191e-01;1.708408117294311523e+00;-1.355632662773132324e+00;-7.029612064361572266e-01;7.112282514572143555e-01;8.810457643448899034e-07;6.000000000000000000e+00
1.983494639396667480e+00;4.813534915447235107e-01;-1.537534952163696289e+00;-1.626072958060831297e-06;-3.684050113861303544e-07;-1.000000000000000000e+00;6.000000000000000000e+00
1.846282243728637695e+00;6.128201484680175781e-01;-1.249025821685791016e+00;-7.028557658195495605e-01;-6.946863532066345215e-01;1.529853641986846924e-01;6.000000000000000000e+00
7.330718636512756348e-01;-1.031069755554199219e+00;-1.379256725311279297e+00;6.882148981094360352e-01;-6.963079571723937988e-01;2.037533968687057495e-01;6.000000000000000000e+00
1.345270395278930664e+00;1.135997176170349121e+00;-1.175132036209106445e+00;-7.028560042381286621e-01;-6.946865320205688477e-01;1.529837995767593384e-01;6.000000000000000000e+00
1.074672698974609375e+00;2.449977844953536987e-01;-1.455949306488037109e+00;-7.112281322479248047e-01;-7.029612064361572266e-01;1.415482643096765969e-06;6.000000000000000000e+00
2.164160013198852539e+00;5.588894486427307129e-01;-7.740727663040161133e-01;1.088107228279113770e-01;1.075447201728820801e-01;9.882279038429260254e-01;6.000000000000000000e+00
6.921777725219726562e-01;-6.696490645408630371e-01;-1.537531971931457520e+00;-1.626072958060831297e-06;-3.684050113861303544e-07;-1.000000000000000000e+00;6.000000000000000000e+00
1.545187830924987793e+00;-9.635389596223831177e-02;-1.340755343437194824e+00;1.668464960857818369e-06;4.103046933323639678e-07;1.000000000000000000e+00;6.000000000000000000e+00
7.228610515594482422e-01;-2.268897369503974915e-02;-1.340754032135009766e+00;1.640203663555439562e-06;3.823715815087780356e-07;1.000000000000000000e+00;6.000000000000000000e+00
1.387558221817016602e+00;6.469421386718750000e-01;-1.537533998489379883e+00;-1.626072958060831297e-06;-3.684050113861303544e-07;-1.000000000000000000e+00;6.000000000000000000e+00
2.125938892364501953e+00;6.340917348861694336e-01;-1.153877735137939453e+00;7.028560638427734375e-01;6.946866512298583984e-01;-1.529828310012817383e-01;6.000000000000000000e+00
1.971531629562377930e+00;2.742401361465454102e-01;-1.340756058692932129e+00;8.803679607808589935e-03;-8.905142545700073242e-03;9.999215602874755859e-01;6.000000000000000000e+00
8.479030430316925049e-02;-4.345446825027465820e-01;-1.537531018257141113e+00;-1.626072958060831297e-06;-3.684050113861303544e-07;-1.000000000000000000e+00;6.000000000000000000e+00
1.154872059822082520e+00;-4.424591362476348877e-01;-1.340754985809326172e+00;1.654334369050047826e-06;3.963381232097162865e-07;1.000000000000000000e+00;6.000000000000000000e+00
1.423137664794921875e+00;1.376210927963256836e+00;-7.819283008575439453e-01;2.497365623712539673e-01;2.468326389789581299e-01;9.363254308700561523e-01;6.000000000000000000e+00
2.110509395599365234e+00;4.051538705825805664e-01;-9.784027934074401855e-01;-6.197531223297119141e-01;-7.699313163757324219e-01;1.520256549119949341e-01;6.000000000000000000e+00
1.185710191726684570e+00;-5.540211796760559082e-01;-1.347847104072570801e+00;4.030737876892089844e-01;-4.078123569488525391e-01;8.192805647850036621e-01;6.000000000000000000e+00
1.461449503898620605e+00;7.587156891822814941e-01;-1.537533998489379883e+00;-1.626072958060831297e-06;-3.684050113861303544e-07;-1.000000000000000000e+00;6.000000000000000000e+00
9.121304750442504883e-01;1.607493638992309570e+00;-1.024095773696899414e+00;-7.236349582672119141e-01;-6.730299592018127441e-01;1.529148817062377930e-01;6.000000000000000000e+00
2.204198122024536133e+00;4.328130185604095459e-01;-1.005355477333068848e+00;7.029612064361572266e-01;-7.112282514572143555e-01;-8.810457643448899034e-07;6.000000000000000000e+00
-1.375168859958648682e-01;-6.125707030296325684e-01;-1.346915483474731445e+00;-3.007192611694335938e-01;-2.972249388694763184e-01;9.062148332595825195e-01;6.000000000000000000e+00
7.934117913246154785e-01;-7.330238223075866699e-01;-1.537533044815063477e+00;-1.626072958060831297e-06;-3.684050113861303544e-07;-1.000000000000000000e+00;6.000000000000000000e+00
1.976705312728881836e+00;5.518306493759155273e-01;-1.340756058692932129e+00;1.626072958060831297e-06;3.684050113861303544e-07;1.000000000000000000e+00;6.000000000000000000e+00
1.455279946327209473e+00;-2.200617939233779907e-01;-1.340754985809326172e+00;2.579301409423351288e-02;8.458105847239494324e-03;9.996315240859985352e-01;6.000000000000000000e+00
1.916845679283142090e+00;6.198993921279907227e-01;-1.537533998489379883e+00;-1.640203663555439562e-06;-3.823715815087780356e-07;-1.000000000000000000e+00;6.000000000000000000e+00
5.305832028388977051e-01;7.840041518211364746e-01;-1.429542422294616699e+00;-7.112281322479248047e-01;-7.029612064361572266e-01;1.415482643096765969e-06;6.000000000000000000e+00
1.109985828399658203e+00;4.672316014766693115e-01;-1.537533044815063477e+00;-1.626072958060831297e-06;-3.684050113861303544e-07;-1.000000000000000000e+00;6.000000000000000000e+00
1.757192492485046387e+00;7.748354077339172363e-01;-9.226458668708801270e-01;-7.028555870056152344e-01;-6.946861147880554199e-01;1.529876589775085449e-01;6.000000000000000000e+00
1.845935940742492676e+00;9.155409932136535645e-01;-1.162264227867126465e+00;7.028560638427734375e-01;6.946866512298583984e-01;-1.529828310012817383e-01;6.000000000000000000e+00
1.589973211288452148e+00;8.104726672172546387e-01;-1.340756058692932129e+00;1.640203663555439562e-06;3.823715815087780356e-07;1.000000000000000000e+00;6.000000000000000000e+00
1.146767020225524902e+00;1.595657825469970703e+00;-1.286110043525695801e+00;7.028560638427734375e-01;6.946864724159240723e-01;-1.529838293790817261e-01;6.000000000000000000e+00
8.329544067382812500e-01;-3.812097012996673584e-01;-1.537533044815063477e+00;-1.626072958060831297e-06;-3.684050113861303544e-07;-1.000000000000000000e+00;6.000000000000000000e+00
7.244478464126586914e-01;-4.744616150856018066e-01;-1.525195360183715820e+00;-4.572939574718475342e-01;-4.519776999950408936e-01;-7.658971548080444336e-01;6.000000000000000000e+00
1.261930465698242188e+00;-1.288281679153442383e-01;-1.340754985809326172e+00;1.626072958060831297e-06;3.684050113861303544e-07;1.000000000000000000e+00;6.000000000000000000e+00
2.110359191894531250e+00;3.484211266040802002e-01;-1.412452697753906250e+00;3.054743111133575439e-01;-9.456767439842224121e-01;-1.112693548202514648e-01;6.000000000000000000e+00
1.153468251228332520e+00;-7.448581606149673462e-02;-1.340754985809326172e+00;1.626072958060831297e-06;3.684050113861303544e-07;1.000000000000000000e+00;6.000000000000000000e+00
1.027705192565917969e+00;1.655199050903320312e+00;-1.428145408630371094e+00;3.138677775859832764e-01;3.102206289768218994e-01;-8.973573446273803711e-01;6.000000000000000000e+00
1.774596452713012695e+00;6.534973978996276855e-01;-1.393661260604858398e+00;-7.060503363609313965e-01;-6.978438496589660645e-01;1.204441264271736145e-01;6.000000000000000000e+00
1.321183323860168457e+00;-3.991418182849884033e-01;-1.342001438140869141e+00;1.308254450559616089e-01;-1.323619782924652100e-01;9.825299382209777832e-01;6.000000000000000000e+00
1.659309148788452148e+00;-1.057421565055847168e-01;-1.483652114868164062e+00;7.029612064361572266e-01;-7.112282514572143555e-01;-8.810457643448899034e-07;6.000000000000000000e+00
9.073725938796997070e-01;-7.440193891525268555e-01;-1.537223458290100098e+00;8.462700247764587402e-02;8.364458382129669189e-02;-9.928957223892211914e-01;6.000000000000000000e+00
1.640952944755554199e+00;2.595019042491912842e-01;-1.537533998489379883e+00;-1.654334369050047826e-06;-3.963381232097162865e-07;-1.000000000000000000e+00;6.000000000000000000e+00
1.116397142410278320e+00;6.488779783248901367e-01;-1.537533164024353027e+00;-1.626072958060831297e-06;-3.684050113861303544e-07;-1.000000000000000000e+00;6.000000000000000000e+00
1.866188049316406250e+00;1.480527967214584351e-01;-1.342266678810119629e+00;1.308254301548004150e-01;-1.323619782924652100e-01;9.825299382209777832e-01;6.000000000000000000e+00
7.786042690277099609e-01;-5.087469220161437988e-01;-1.344313383102416992e+00;-2.431020736694335938e-01;-2.402775436639785767e-01;9.397702813148498535e-01;6.000000000000000000e+00
1.090896487236022949e+00;2.238410115242004395e-01;-1.424584627151489258e+00;7.112281322479248047e-01;7.029612064361572266e-01;-1.415482643096765969e-06;6.000000000000000000e+00
1.758942842483520508e+00;9.989801645278930664e-01;-1.183046698570251465e+00;7.028550505638122559e-01;6.946855783462524414e-01;-1.529927849769592285e-01;6.000000000000000000e+00
1.320749878883361816e+00;1.155215382575988770e+00;-1.200518369674682617e+00;-7.028560638427734375e-01;-6.946865320205688477e-01;1.529837995767593384e-01;6.000000000000000000e+00
1.809623003005981445e+00;8.709040880203247070e-01;-1.457192063331604004e+00;4.683563113212585449e-01;4.629132747650146484e-01;-7.525647282600402832e-01;6.000000000000000000e+00
1.746573448181152344e+00;3.915945589542388916e-01;-1.340756058692932129e+00;1.668464960857818369e-06;4.103046933323639678e-07;1.000000000000000000e+00;6.000000000000000000e+00
1.493511795997619629e+00;1.092665314674377441e+00;-1.459314346313476562e+00;-3.425351083278656006e-01;1.420387029647827148e-01;-9.287058711051940918e-01;6.000000000000000000e+00
1.221727728843688965e+00;5.724686384201049805e-01;-1.537533998489379883e+00;-1.626072958060831297e-06;-3.684050113861303544e-07;-1.000000000000000000e+00;6.000000000000000000e+00
1.964882850646972656e+00;5.594614148139953613e-01;-1.340756058692932129e+00;1.626072958060831297e-06;3.684050113861303544e-07;1.000000000000000000e+00;6.000000000000000000e+00
8.923643231391906738e-01;2.549280524253845215e-01;-1.537533044815063477e+00;-1.640203663555439562e-06;-3.823715815087780356e-07;-1.000000000000000000e+00;6.000000000000000000e+00
1.320291280746459961e+00;7.493234872817993164e-01;-1.537533998489379883e+00;-1.626072958060831297e-06;-3.684050113861303544e-07;-1.000000000000000000e+00;6.000000000000000000e+00
1.991996288299560547e+00;2.251261770725250244e-01;-1.502040028572082520e+00;6.882143020629882812e-01;-6.963081955909729004e-01;-2.037551105022430420e-01;6.000000000000000000e+00
1.814077019691467285e+00;4.520081579685211182e-01;-1.537534356117248535e+00;-1.668464960857818369e-06;-4.103046933323639678e-07;-1.000000000000000000e+00;6.000000000000000000e+00
9.812625646591186523e-01;-4.007182642817497253e-02;-1.537533044815063477e+00;-1.654334369050047826e-06;-3.963381232097162865e-07;-1.000000000000000000e+00;6.000000000000000000e+00
3.752609193325042725e-01;-1.128375649452209473e+00;-1.346042156219482422e+00;-3.007192611694335938e-01;-2.972249388694763184e-01;9.062148332595825195e-01;6.000000000000000000e+00
1.591562032699584961e+00;1.137322545051574707e+00;-1.323842644691467285e+00;6.850308179855346680e-01;7.122786045074462891e-01;-1.529447734355926514e-01;6.000000000000000000e+00
-9.600869566202163696e-02;-4.569222331047058105e-01;-1.365543246269226074e+00;-6.370325088500976562e-01;6.445249319076538086e-01;4.228204190731048584e-01;6.000000000000000000e+00
6.663873195648193359e-01;-6.313281059265136719e-01;-1.537531971931457520e+00;-1.626072958060831297e-06;-3.684050113861303544e-07;-1.000000000000000000e+00;6.000000000000000000e+00
1.129450559616088867e+00;1.412347793579101562e+00;-9.118032455444335938e-01;-7.028549313545227051e-01;-6.946853995323181152e-01;1.529944390058517456e-01;6.000000000000000000e+00
3.385995924472808838e-01;9.782453775405883789e-01;-1.404785037040710449e+00;-7.112281322479248047e-01;-7.029612064361572266e-01;1.415482643096765969e-06;6.000000000000000000e+00
3.246148824691772461e-01;-1.065607070922851562e+00;-1.535599470138549805e+00;-2.431062757968902588e-01;-2.402793914079666138e-01;-9.397686719894409180e-01;6.000000000000000000e+00
1.952495098114013672e+00;1.840359866619110107e-01;-1.391942143440246582e+00;7.026324272155761719e-01;-7.108954191207885742e-01;3.058290109038352966e-02;6.000000000000000000e+00
1.063225865364074707e+00;1.449005126953125000e+00;-1.049598813056945801e+00;-7.028560638427734375e-01;-6.946865916252136230e-01;1.529834717512130737e-01;6.000000000000000000e+00
2.063683748245239258e+00;5.973025560379028320e-01;-7.671902179718017578e-01;1.088055297732353210e-01;1.075396239757537842e-01;9.882290363311767578e-01;6.000000000000000000e+00
1.864895939826965332e+00;7.038219571113586426e-01;-1.461828231811523438e+00;-1.088081747293472290e-01;-1.075421720743179321e-01;-9.882283806800842285e-01;6.000000000000000000e+00
1.098680019378662109e+00;1.519243240356445312e+00;-7.637739777565002441e-01;-1.985763311386108398e-01;-1.962694227695465088e-01;9.602320790290832520e-01;6.000000000000000000e+00
2.054845809936523438e+00;5.833129882812500000e-01;-7.646940350532531738e-01;1.088136434555053711e-01;1.075476109981536865e-01;9.882273077964782715e-01;6.000000000000000000e+00
4.098110496997833252e-01;-6.690907478332519531e-01;-1.340754032135009766e+00;1.626072958060831297e-06;3.684050113861303544e-07;1.000000000000000000e+00;6.000000000000000000e+00
7.139431238174438477e-01;-7.212539315223693848e-01;-1.340754032135009766e+00;1.626072958060831297e-06;3.684050113861303544e-07;1.000000000000000000e+00;6.000000000000000000e+00
2.191146373748779297e+00;4.334673881530761719e-01;-1.518108725547790527e+00;6.352452039718627930e-01;-5.042729377746582031e-01;-5.849550366401672363e-01;6.000000000000000000e+00
1.462487816810607910e+00;4.498271346092224121e-01;-1.537533998489379883e+00;-1.654334369050047826e-06;-3.963381232097162865e-07;-1.000000000000000000e+00;6.000000000000000000e+00
1.305675148963928223e+00;7.814244627952575684e-01;-1.340755105018615723e+00;1.626072958060831297e-06;3.684050113861303544e-07;1.000000000000000000e+00;6.000000000000000000e+00
1.442611098289489746e+00;1.098475813865661621e+00;-1.369162559509277344e+00;7.010045647621154785e-01;-7.129578590393066406e-01;-1.684417575597763062e-02;6.000000000000000000e+00
1.699370890855789185e-01;-2.952585220336914062e-01;-1.537531971931457520e+00;-1.626072958060831297e-06;-3.684050113861303544e-07;-1.000000000000000000e+00;6.000000000000000000e+00
5.497359037399291992e-01;-3.195001482963562012e-01;-1.458793640136718750e+00;-7.112281322479248047e-01;-7.029612064361572266e-01;1.415482643096765969e-06;6.000000000000000000e+00
1.232449173927307129e+00;9.098627418279647827e-02;-1.508736371994018555e+00;-6.445264220237731934e-01;-6.370343565940856934e-01;-4.228155314922332764e-01;6.000000000000000000e+00
1.478347420692443848e+00;-2.959475219249725342e-01;-1.423392415046691895e+00;7.029612064361572266e-01;-7.112282514572143555e-01;-8.810457643448899034e-07;6.000000000000000000e+00
1.677879095077514648e+00;1.118589878082275391e+00;-1.012341260910034180e+00;7.028555870056152344e-01;6.946861147880554199e-01;-1.529876589775085449e-01;6.000000000000000000e+00
4.626927077770233154e-01;1.031732708215713501e-01;-1.409192442893981934e+00;-7.029612064361572266e-01;7.112282514572143555e-01;8.810457643448899034e-07;6.000000000000000000e+00
1.686208724975585938e+00;8.507655858993530273e-01;-1.458144068717956543e+00;-1.088123917579650879e-01;-1.075463891029357910e-01;-9.882275462150573730e-01;6.000000000000000000e+00
1.265638351440429688e+00;1.453914523124694824e+00;-1.383619904518127441e+00;7.008975148200988770e-01;6.927507519721984863e-01;-1.698204427957534790e-01;6.000000000000000000e+00
6.518870592117309570e-01;-4.088750481605529785e-01;-1.359356045722961426e+00;-5.826963782310485840e-01;-5.759241580963134766e-01;5.733901262283325195e-01;6.000000000000000000e+00
8.879343271255493164e-01;-6.616756319999694824e-01;-1.430638074874877930e+00;-7.112281322479248047e-01;-7.029612064361572266e-01;1.415482643096765969e-06;6.000000000000000000e+00
4.796526432037353516e-01;-2.487673461437225342e-01;-1.493008375167846680e+00;6.963073015213012695e-01;6.882141828536987305e-01;-2.037584781646728516e-01;6.000000000000000000e+00
3.701713085174560547e-01;-1.014447450637817383e+00;-1.340752959251403809e+00;1.626072958060831297e-06;3.684050113861303544e-07;1.000000000000000000e+00;6.000000000000000000e+00
1.432340741157531738e+00;1.008529543876647949e+00;-1.354586124420166016e+00;-7.771259546279907227e-01;-6.107080578804016113e-01;1.520231068134307861e-01;6.000000000000000000e+00
1.122076630592346191e+00;1.336141467094421387e+00;-1.400783896446228027e+00;-4.921582043170928955e-01;-4.864367246627807617e-01;-7.219138741493225098e-01;6.000000000000000000e+00
1.841807842254638672e+00;9.005590677261352539e-01;-1.249259352684020996e+00;7.028566598892211914e-01;6.946871876716613770e-01;-1.529778838157653809e-01;6.000000000000000000e+00
4.552779197692871094e-01;8.076936751604080200e-02;-1.520100474357604980e+00;-5.384001135826110840e-01;5.447304248809814453e-01;-6.429572701454162598e-01;6.000000000000000000e+00
2.066661119461059570e+00;7.497991323471069336e-01;-9.008025527000427246e-01;7.028555274009704590e-01;6.946861147880554199e-01;-1.529878675937652588e-01;6.000000000000000000e+00
1.460155844688415527e+00;1.115816354751586914e+00;-1.272899270057678223e+00;7.029612064361572266e-01;-7.112282514572143555e-01;-8.810457643448899034e-07;6.000000000000000000e+00
1.148512482643127441e+00;1.702900528907775879e-01;-1.426785469055175781e+00;-7.112281322479248047e-01;-7.029612064361572266e-01;1.415482643096765969e-06;6.000000000000000000e+00
1.742737054824829102e+00;1.039275050163269043e+00;-7.801517844200134277e-01;2.115344554185867310e-01;2.090745419263839722e-01;9.547464847564697266e-01;6.000000000000000000e+00
2.464364320039749146e-01;-1.994614154100418091e-01;-1.340752959251403809e+00;-1.760242879390716553e-02;1.781144924461841583e-02;9.996864199638366699e-01;6.000000000000000000e+00
6.014633178710937500e-01;-7.242646217346191406e-01;-1.537531971931457520e+00;-1.626072958060831297e-06;-3.684050113861303544e-07;-1.000000000000000000e+00;6.000000000000000000e+00
4.067157506942749023e-01;-1.694806516170501709e-01;-1.370067238807678223e+00;-6.683880686759948730e-01;-6.606194972991943359e-01;3.418175280094146729e-01;6.000000000000000000e+00
6.884571909904479980e-01;1.232009008526802063e-01;-1.537532210350036621e+00;-1.626072958060831297e-06;-3.684050113861303544e-07;-1.000000000000000000e+00;6.000000000000000000e+00
1.641370415687561035e+00;7.869143486022949219e-01;-1.404219388961791992e+00;-7.108268737792968750e-01;-7.025647163391113281e-01;3.358579427003860474e-02;6.000000000000000000e+00
8.622546195983886719e-01;-6.356938481330871582e-01;-1.421229481697082520e+00;-7.112281322479248047e-01;-7.029612064361572266e-01;1.415482643096765969e-06;6.000000000000000000e+00
1.036617279052734375e+00;-7.325435280799865723e-01;-1.459290027618408203e+00;6.919890642166137695e-01;-7.219080924987792969e-01;-8.586866329096665140e-07;6.000000000000000000e+00
1.436256766319274902e+00;1.076768875122070312e+00;-1.424259662628173828e+00;-7.029612064361572266e-01;7.112282514572143555e-01;8.810457643448899034e-07;6.000000000000000000e+00
1.273560404777526855e+00;1.496860146522521973e+00;-1.152215957641601562e+00;7.028560638427734375e-01;6.946865320205688477e-01;-1.529837995767593384e-01;6.000000000000000000e+00
8.318285942077636719e-01;-4.899630323052406311e-02;-1.537533044815063477e+00;-1.626072958060831297e-06;-3.684050113861303544e-07;-1.000000000000000000e+00;6.000000000000000000e+00
1.390700817108154297e+00;1.375595927238464355e+00;-1.164684414863586426e+00;7.028560042381286621e-01;6.946865320205688477e-01;-1.529837846755981445e-01;6.000000000000000000e+00
2.214114904403686523e+00;6.060959696769714355e-01;-8.014745116233825684e-01;6.082760691642761230e-01;6.012051105499267578e-01;5.182206034660339355e-01;6.000000000000000000e+00
1.833865642547607422e+00;8.389073014259338379e-01;-1.356189966201782227e+00;5.447258353233337402e-01;5.383935570716857910e-01;6.429666876792907715e-01;6.000000000000000000e+00
1.082700490951538086e+00;1.461241841316223145e+00;-9.045616984367370605e-01;-7.028554081916809082e-01;-6.946859359741210938e-01;1.529890596866607666e-01;6.000000000000000000e+00
1.317578673362731934e+00;1.253187060356140137e+00;-7.876868844032287598e-01;-6.233285069465637207e-01;-6.160838603973388672e-01;4.815622866153717041e-01;6.000000000000000000e+00
1.682682752609252930e+00;-8.264000713825225830e-02;-1.443047881126403809e+00;7.029612064361572266e-01;-7.112282514572143555e-01;-8.810457643448899034e-07;6.000000000000000000e+00
5.828479528427124023e-01;-2.318962216377258301e-01;-1.340754032135009766e+00;1.626072958060831297e-06;3.684050113861303544e-07;1.000000000000000000e+00;6.000000000000000000e+00
3.435866534709930420e-01;-5.215598940849304199e-01;-1.537531971931457520e+00;-1.626072958060831297e-06;-3.684050113861303544e-07;-1.000000000000000000e+00;6.000000000000000000e+00
1.490612983703613281e+00;1.006507396697998047e+00;-1.453556656837463379e+00;-1.088081747293472290e-01;-1.075421720743179321e-01;-9.882283806800842285e-01;6.000000000000000000e+00
1.913015961647033691e+00;5.955875515937805176e-01;-1.020690679550170898e+00;-7.028551101684570312e-01;-6.946855187416076660e-01;1.529926657676696777e-01;6.000000000000000000e+00
1.500702857971191406e+00;4.364558160305023193e-01;-1.537533998489379883e+00;-1.654334369050047826e-06;-3.963381232097162865e-07;-1.000000000000000000e+00;6.000000000000000000e+00
1.681237459182739258e+00;1.063738226890563965e+00;-1.245988607406616211e+00;7.028566598892211914e-01;6.946872472763061523e-01;-1.529778838157653809e-01;6.000000000000000000e+00
2.178674697875976562e+00;6.484943628311157227e-01;-8.110938072204589844e-01;6.829426288604736328e-01;6.750041246414184570e-01;2.792112231254577637e-01;6.000000000000000000e+00
1.569713711738586426e+00;1.168528318405151367e+00;-1.256031155586242676e+00;3.397077620029449463e-01;9.302575588226318359e-01;-1.386341154575347900e-01;6.000000000000000000e+00
1.153813242912292480e+00;1.410701990127563477e+00;-8.073447942733764648e-01;-6.987372040748596191e-01;-6.906156539916992188e-01;1.865912973880767822e-01;6.000000000000000000e+00
1.503851056098937988e+00;9.629082679748535156e-01;-1.232545137405395508e+00;-7.028552889823913574e-01;-6.946858167648315430e-01;1.529903411865234375e-01;6.000000000000000000e+00
2.114294290542602539e+00;4.114616811275482178e-01;-1.457472085952758789e+00;-9.117662906646728516e-02;-1.253255754709243774e-01;-9.879171848297119141e-01;6.000000000000000000e+00
1.726618409156799316e+00;6.762659549713134766e-01;-1.340756058692932129e+00;1.668464960857818369e-06;4.103046933323639678e-07;1.000000000000000000e+00;6.000000000000000000e+00
7.524061203002929688e-01;3.618223667144775391e-01;-1.528550028800964355e+00;-4.519759714603424072e-01;4.572896659374237061e-01;-7.659006714820861816e-01;6.000000000000000000e+00
1.528380393981933594e+00;9.607216715812683105e-01;-1.452732443809509277e+00;-1.515998244285583496e-01;-1.498365402221679688e-01;-9.770191907882690430e-01;6.000000000000000000e+00
1.245394587516784668e+00;1.322577238082885742e+00;-7.938264608383178711e-01;-6.692475080490112305e-01;-6.614689230918884277e-01;3.384768664836883545e-01;6.000000000000000000e+00
5.502058267593383789e-01;-1.211845636367797852e+00;-1.498837947845458984e+00;6.952345371246337891e-01;-7.034109234809875488e-01;-1.478582173585891724e-01;6.000000000000000000e+00
2.221229076385498047e+00;5.818393230438232422e-01;-9.533635377883911133e-01;7.028550505638122559e-01;6.946855187416076660e-01;-1.529927700757980347e-01;6.000000000000000000e+00
1.651602029800415039e+00;1.021829843521118164e+00;-1.354829788208007812e+00;5.447257757186889648e-01;5.383934974670410156e-01;6.429667472839355469e-01;6.000000000000000000e+00
1.444393515586853027e+00;1.084810614585876465e+00;-1.377528667449951172e+00;-7.029612064361572266e-01;7.112282514572143555e-01;8.810457643448899034e-07;6.000000000000000000e+00
5.449905395507812500e-01;-4.088954031467437744e-01;-1.537531971931457520e+00;1.142153888940811157e-02;1.129001658409833908e-02;-9.998710751533508301e-01;6.000000000000000000e+00
2.127106666564941406e+00;3.630484342575073242e-01;-1.368050694465637207e+00;6.606216430664062500e-01;-6.683900356292724609e-01;3.418095409870147705e-01;6.000000000000000000e+00
1.378585100173950195e+00;1.410901695489883423e-01;-1.537533998489379883e+00;-1.626072958060831297e-06;-3.684050113861303544e-07;-1.000000000000000000e+00;6.000000000000000000e+00
6.090626716613769531e-01;-4.478998109698295593e-02;-1.537533044815063477e+00;-1.654334369050047826e-06;-3.963381232097162865e-07;-1.000000000000000000e+00;6.000000000000000000e+00
2.161384373903274536e-01;-8.297828435897827148e-01;-1.340752959251403809e+00;1.626072958060831297e-06;3.684050113861303544e-07;1.000000000000000000e+00;6.000000000000000000e+00
1.863369941711425781e+00;5.912184715270996094e-01;-1.268614292144775391e+00;-7.028557658195495605e-01;-6.946863532066345215e-01;1.529853045940399170e-01;6.000000000000000000e+00
1.512401580810546875e+00;1.152027368545532227e+00;-9.584909677505493164e-01;-7.029612064361572266e-01;7.112282514572143555e-01;8.810457643448899034e-07;6.000000000000000000e+00
9.326009750366210938e-01;5.423321127891540527e-01;-1.532446861267089844e+00;-2.402808964252471924e-01;2.431047856807708740e-01;-9.397686719894409180e-01;6.000000000000000000e+00
4.601792097091674805e-01;-1.576774865388870239e-01;-1.537531971931457520e+00;-2.178118936717510223e-02;-2.152677997946739197e-02;-9.995309710502624512e-01;6.000000000000000000e+00
1.168440580368041992e+00;8.107523918151855469e-01;-1.498070955276489258e+00;-6.882147789001464844e-01;6.963078975677490234e-01;-2.037543803453445435e-01;6.000000000000000000e+00
1.879991650581359863e+00;5.938806533813476562e-01;-1.450840115547180176e+00;-2.497399002313613892e-01;-2.468358725309371948e-01;-9.363236427307128906e-01;6.000000000000000000e+00
1.498265862464904785e+00;1.153482437133789062e+00;-9.052271246910095215e-01;7.029612064361572266e-01;-7.112282514572143555e-01;-8.810457643448899034e-07;6.000000000000000000e+00
1.052604198455810547e+00;1.726730108261108398e+00;-1.123541593551635742e+00;6.922290921211242676e-01;7.052801251411437988e-01;-1.529663950204849243e-01;6.000000000000000000e+00
