1.393330991268157959e-01;-1.781592488288879395e+00;-1.582193613052368164e+00;-6.205338835716247559e-01;-7.787753939628601074e-01;-9.190513193607330322e-02;8.000000000000000000e+00
1.559120416641235352e-01;-1.572782278060913086e+00;-1.894572019577026367e+00;4.523681998252868652e-01;5.042628049850463867e-01;-7.355828285217285156e-01;8.000000000000000000e+00
2.037038505077362061e-01;-1.789386630058288574e+00;-1.700772047042846680e+00;5.457891821861267090e-01;-8.356297016143798828e-01;-6.194517761468887329e-02;8.000000000000000000e+00
-2.813225388526916504e-01;-1.575463891029357910e+00;-1.625669240951538086e+00;-8.611024022102355957e-01;-1.784207224845886230e-01;-4.760973751544952393e-01;8.000000000000000000e+00
-1.564457118511199951e-01;-1.488196969032287598e+00;-1.873996138572692871e+00;-5.781449079513549805e-01;4.875373840332031250e-01;-6.542596817016601562e-01;8.000000000000000000e+00
-2.722821533679962158e-01;-1.586579918861389160e+00;-1.666983604431152344e+00;-8.212486505508422852e-01;-5.700511336326599121e-01;2.433679997920989990e-02;8.000000000000000000e+00
2.329373955726623535e-01;-1.610873103141784668e+00;-1.497405171394348145e+00;3.870009183883666992e-01;4.303112626075744629e-01;8.155137300491333008e-01;8.000000000000000000e+00
2.702531516551971436e-01;-1.672094702720642090e+00;-1.630844354629516602e+00;1.781498342752456665e-01;-9.744801521301269531e-01;-1.365685015916824341e-01;8.000000000000000000e+00
-2.766336500644683838e-01;-1.572451591491699219e+00;-1.676373481750488281e+00;-9.703006744384765625e-01;-2.321657985448837280e-01;-6.793837994337081909e-02;8.000000000000000000e+00
2.315244823694229126e-01;-1.662363648414611816e+00;-1.514268398284912109e+00;8.073266744613647461e-01;-2.064830511808395386e-01;5.528004169464111328e-01;8.000000000000000000e+00
-6.043145805597305298e-02;-1.641725420951843262e+00;-1.869372129440307617e+00;7.861343026161193848e-02;-3.700383007526397705e-02;9.962182044982910156e-01;8.000000000000000000e+00
-5.963874980807304382e-02;-1.470805406570434570e+00;-1.893589615821838379e+00;4.490857720375061035e-01;4.010933935642242432e-01;-7.984021306037902832e-01;8.000000000000000000e+00
-2.106879502534866333e-01;-1.487676382064819336e+00;-1.514512181282043457e+00;-7.737696766853332520e-01;3.839609920978546143e-01;5.038397312164306641e-01;8.000000000000000000e+00
2.774807810783386230e-01;-1.664693593978881836e+00;-1.628360867500305176e+00;6.991897821426391602e-01;-6.308484077453613281e-01;-3.363986313343048096e-01;8.000000000000000000e+00
1.384287476539611816e-01;-1.782316327095031738e+00;-1.804309964179992676e+00;-8.857063204050064087e-02;-9.933534860610961914e-01;-7.351244986057281494e-02;8.000000000000000000e+00
2.207920327782630920e-02;-1.603689193725585938e+00;-1.379626512527465820e+00;2.899371683597564697e-01;9.038942456245422363e-01;-3.145022094249725342e-01;8.000000000000000000e+00
-2.684695422649383545e-01;-1.509573221206665039e+00;-1.602836966514587402e+00;-7.974051833152770996e-01;5.894042253494262695e-01;1.294121444225311279e-01;8.000000000000000000e+00
-2.423816323280334473e-01;-1.479204177856445312e+00;-1.743954658508300781e+00;1.458697915077209473e-01;9.825074076652526855e-01;-1.157635599374771118e-01;8.000000000000000000e+00
1.484136879444122314e-01;-1.636972427368164062e+00;-1.507389545440673828e+00;-6.726119518280029297e-01;3.166073262691497803e-01;-6.688444614410400391e-01;8.000000000000000000e+00
2.323676198720932007e-01;-1.619014024734497070e+00;-1.825959324836730957e+00;8.844754099845886230e-01;1.784772723913192749e-01;-4.311022758483886719e-01;8.000000000000000000e+00
-1.592954099178314209e-01;-1.521549463272094727e+00;-1.533893227577209473e+00;7.753798365592956543e-01;-3.649823963642120361e-01;-5.153387188911437988e-01;8.000000000000000000e+00
-2.859501838684082031e-01;-1.568540096282958984e+00;-1.646920919418334961e+00;-9.407393336296081543e-01;-2.743809223175048828e-01;1.993104666471481323e-01;8.000000000000000000e+00
-1.699336022138595581e-01;-1.410921096801757812e+00;-1.594259500503540039e+00;-9.953228384256362915e-02;9.138952493667602539e-01;-3.935589194297790527e-01;8.000000000000000000e+00
6.115204840898513794e-02;-1.520941615104675293e+00;-1.416177511215209961e+00;-9.183155000209808350e-02;9.102883934974670410e-01;4.036608636379241943e-01;8.000000000000000000e+00
-1.098980084061622620e-01;-1.607147216796875000e+00;-1.467177510261535645e+00;3.676846325397491455e-01;-1.730749756097793579e-01;-9.137029647827148438e-01;8.000000000000000000e+00
-1.337027102708816528e-01;-1.461506962776184082e+00;-1.454233169555664062e+00;-4.585119485855102539e-01;5.085510611534118652e-01;7.287953495979309082e-01;8.000000000000000000e+00
-2.388287484645843506e-01;-1.602496504783630371e+00;-1.651300668716430664e+00;-1.896491348743438721e-01;-9.817613959312438965e-01;-1.333100162446498871e-02;8.000000000000000000e+00
2.207916378974914551e-01;-1.597833871841430664e+00;-1.502625465393066406e+00;5.839825868606567383e-01;7.973265647888183594e-01;1.524295061826705933e-01;8.000000000000000000e+00
4.413454607129096985e-02;-1.661691904067993164e+00;-1.864219188690185547e+00;-3.677657544612884521e-01;1.731131523847579956e-01;9.136630892753601074e-01;8.000000000000000000e+00
-1.785572022199630737e-01;-1.630582213401794434e+00;-1.875277996063232422e+00;-5.553267002105712891e-01;-7.746663689613342285e-01;-3.024967312812805176e-01;8.000000000000000000e+00
-1.857231110334396362e-01;-1.506485104560852051e+00;-1.597220778465270996e+00;8.815308213233947754e-01;-4.149488508701324463e-01;-2.252129316329956055e-01;8.000000000000000000e+00
2.451233714818954468e-01;-1.658623337745666504e+00;-1.520534276962280273e+00;-1.897403895854949951e-01;-4.729638993740081787e-01;8.604090213775634766e-01;8.000000000000000000e+00
1.479915529489517212e-01;-1.577528953552246094e+00;-1.890407800674438477e+00;6.271389722824096680e-01;4.096729755401611328e-01;-6.624687314033508301e-01;8.000000000000000000e+00
5.390041694045066833e-02;-1.529259443283081055e+00;-1.929715275764465332e+00;1.664583981037139893e-01;6.388487815856933594e-01;-7.511083483695983887e-01;8.000000000000000000e+00
2.480369806289672852e-01;-1.732035160064697266e+00;-1.712296128273010254e+00;2.300295084714889526e-01;-9.722166657447814941e-01;-4.337212815880775452e-02;8.000000000000000000e+00
1.695267260074615479e-01;-1.799649238586425781e+00;-1.649039506912231445e+00;-3.296169340610504150e-01;-9.423993825912475586e-01;5.688723176717758179e-02;8.000000000000000000e+00
-2.531762979924678802e-02;-1.603149414062500000e+00;-1.372825980186462402e+00;-1.805490106344223022e-01;-3.839219212532043457e-01;9.055417776107788086e-01;8.000000000000000000e+00
-2.287382036447525024e-01;-1.501601099967956543e+00;-1.801969528198242188e+00;-6.364299058914184570e-01;6.006596684455871582e-01;-4.839057326316833496e-01;8.000000000000000000e+00
-1.822203397750854492e-01;-1.507522702217102051e+00;-1.470430731773376465e+00;7.078414559364318848e-01;6.629993319511413574e-01;-2.437056005001068115e-01;8.000000000000000000e+00
-2.117867767810821533e-01;-1.618470430374145508e+00;-1.784144401550292969e+00;-2.265128046274185181e-01;-9.642573595046997070e-01;1.374761015176773071e-01;8.000000000000000000e+00
1.316891014575958252e-01;-1.779760241508483887e+00;-1.762205243110656738e+00;-6.099430322647094727e-01;-7.837864756584167480e-01;1.168255284428596497e-01;8.000000000000000000e+00
9.930520504713058472e-02;-1.547352671623229980e+00;-1.903068661689758301e+00;9.672540426254272461e-01;-1.320678889751434326e-01;-2.167431563138961792e-01;8.000000000000000000e+00
1.756709814071655273e-01;-1.668362498283386230e+00;-1.864083170890808105e+00;6.045324802398681641e-01;-2.507563829421997070e-01;-7.560831308364868164e-01;8.000000000000000000e+00
2.271408736705780029e-01;-1.731729388236999512e+00;-1.754338026046752930e+00;9.831293821334838867e-01;1.618336588144302368e-01;8.524432033300399780e-02;8.000000000000000000e+00
1.099834963679313660e-01;-1.540154814720153809e+00;-1.433126688003540039e+00;3.968304097652435303e-01;9.119431972503662109e-01;1.043323576450347900e-01;8.000000000000000000e+00
-2.804938554763793945e-01;-1.532220125198364258e+00;-1.673756241798400879e+00;-1.682917773723602295e-01;9.698231816291809082e-01;1.764109134674072266e-01;8.000000000000000000e+00
2.692795991897583008e-01;-1.641368985176086426e+00;-1.602454423904418945e+00;9.826064705848693848e-01;1.162238344550132751e-01;1.448327451944351196e-01;8.000000000000000000e+00
2.414490878582000732e-01;-1.745108366012573242e+00;-1.717853188514709473e+00;7.620368003845214844e-01;-5.741210579872131348e-01;-2.994743585586547852e-01;8.000000000000000000e+00
6.131822243332862854e-02;-1.679361820220947266e+00;-1.395807027816772461e+00;2.381731420755386353e-01;-2.856533527374267578e-01;9.282649159431457520e-01;8.000000000000000000e+00
-2.214391380548477173e-01;-1.599990487098693848e+00;-1.492056727409362793e+00;-8.399459719657897949e-01;-3.095040321350097656e-01;4.457555115222930908e-01;8.000000000000000000e+00
-2.192833423614501953e-01;-1.616683125495910645e+00;-1.514198422431945801e+00;-5.675814747810363770e-01;-8.050129413604736328e-01;1.726427972316741943e-01;8.000000000000000000e+00
1.701567322015762329e-01;-1.742891550064086914e+00;-1.493423819541931152e+00;6.534815430641174316e-01;4.829536974430084229e-01;5.828530788421630859e-01;8.000000000000000000e+00
2.407007217407226562e-01;-1.640366911888122559e+00;-1.524078249931335449e+00;2.237604111433029175e-01;-7.630835473537445068e-02;9.716523289680480957e-01;8.000000000000000000e+00
-2.284150421619415283e-01;-1.506072282791137695e+00;-1.530478835105895996e+00;-8.255096077919006348e-01;3.688178062438964844e-01;4.272087216377258301e-01;8.000000000000000000e+00
1.954293549060821533e-01;-1.650743365287780762e+00;-1.851560950279235840e+00;-2.586932778358459473e-01;-5.807708501815795898e-01;-7.718697786331176758e-01;8.000000000000000000e+00
-1.742479354143142700e-01;-1.629607200622558594e+00;-1.500155091285705566e+00;6.726116538047790527e-01;-3.166080713272094727e-01;-6.688444018363952637e-01;8.000000000000000000e+00
-1.218281760811805725e-01;-1.486842155456542969e+00;-1.434076309204101562e+00;-2.604397237300872803e-01;-1.791332066059112549e-01;9.487267732620239258e-01;8.000000000000000000e+00
-1.076597273349761963e-01;-1.667738437652587891e+00;-1.900224566459655762e+00;-6.049125194549560547e-01;-7.347388267517089844e-01;-3.069849014282226562e-01;8.000000000000000000e+00
1.592039167881011963e-01;-1.665443420410156250e+00;-1.787887454032897949e+00;-6.725530028343200684e-01;3.165805041790008545e-01;6.689165234565734863e-01;8.000000000000000000e+00
1.667830497026443481e-01;-1.705544471740722656e+00;-1.866300225257873535e+00;1.975301504135131836e-01;6.095695495605468750e-01;-7.677283287048339844e-01;8.000000000000000000e+00
2.400285750627517700e-01;-1.602278232574462891e+00;-1.542779326438903809e+00;5.753293633460998535e-01;7.781880497932434082e-01;2.518322467803955078e-01;8.000000000000000000e+00
2.018092870712280273e-01;-1.758193969726562500e+00;-1.545991659164428711e+00;8.784114718437194824e-01;4.771082997322082520e-01;2.758562564849853516e-02;8.000000000000000000e+00
-2.355878800153732300e-01;-1.602626442909240723e+00;-1.653911471366882324e+00;-1.896491348743438721e-01;-9.817613959312438965e-01;-1.333100162446498871e-02;8.000000000000000000e+00
1.333019435405731201e-01;-1.551444053649902344e+00;-1.877313613891601562e+00;4.905749559402465820e-01;8.412845730781555176e-01;-2.271046787500381470e-01;8.000000000000000000e+00
2.406014502048492432e-01;-1.600217580795288086e+00;-1.732128381729125977e+00;3.161288201808929443e-01;9.486216902732849121e-01;1.339800655841827393e-02;8.000000000000000000e+00
-1.081305593252182007e-01;-1.493521094322204590e+00;-1.899263739585876465e+00;-7.615095973014831543e-01;-5.321564674377441406e-01;-3.700170218944549561e-01;8.000000000000000000e+00
2.458213716745376587e-01;-1.654279589653015137e+00;-1.520839691162109375e+00;-1.897403895854949951e-01;-4.729638993740081787e-01;8.604090213775634766e-01;8.000000000000000000e+00
2.411573082208633423e-01;-1.711671471595764160e+00;-1.551381349563598633e+00;9.555543661117553711e-01;-1.591298542916774750e-02;2.943854033946990967e-01;8.000000000000000000e+00
-9.916368871927261353e-02;-1.617875218391418457e+00;-1.499066591262817383e+00;3.784575760364532471e-01;-2.647009193897247314e-01;-8.869629502296447754e-01;8.000000000000000000e+00
1.250612884759902954e-01;-1.711272716522216797e+00;-1.744779944419860840e+00;-8.717043399810791016e-01;2.082254141569137573e-01;4.435918629169464111e-01;8.000000000000000000e+00
-1.203097924590110779e-01;-1.666877627372741699e+00;-1.473465085029602051e+00;-2.876955270767211914e-02;-7.095997333526611328e-01;-7.040173411369323730e-01;8.000000000000000000e+00
6.720282137393951416e-02;-1.653035759925842285e+00;-1.823262929916381836e+00;-4.493478238582611084e-01;1.098177582025527954e-01;8.865814208984375000e-01;8.000000000000000000e+00
-4.637067764997482300e-02;-1.553536653518676758e+00;-1.627775788307189941e+00;4.085580110549926758e-01;8.248201608657836914e-01;-3.908350467681884766e-01;8.000000000000000000e+00
1.272969599813222885e-02;-1.694064736366271973e+00;-1.856855154037475586e+00;-3.884754776954650879e-01;-2.374915331602096558e-01;8.903284072875976562e-01;8.000000000000000000e+00
-3.588216379284858704e-02;-1.559021234512329102e+00;-1.722158789634704590e+00;6.695339083671569824e-01;5.920806527137756348e-01;4.485139548778533936e-01;8.000000000000000000e+00
4.468162357807159424e-02;-1.655775547027587891e+00;-1.676985025405883789e+00;-4.096802175045013428e-01;-9.121520519256591797e-01;-1.186458487063646317e-02;8.000000000000000000e+00
2.029072046279907227e-01;-1.659831404685974121e+00;-1.650493621826171875e+00;1.881431639194488525e-01;9.806477427482604980e-01;-5.414960533380508423e-02;8.000000000000000000e+00
-7.760725170373916626e-02;-1.620035171508789062e+00;-1.490562558174133301e+00;2.163684517145156860e-01;-3.356124758720397949e-01;-9.168145656585693359e-01;8.000000000000000000e+00
-1.677174121141433716e-01;-1.515404105186462402e+00;-1.686864018440246582e+00;9.632055759429931641e-01;2.393009811639785767e-01;1.223522871732711792e-01;8.000000000000000000e+00
-2.267644703388214111e-01;-1.610007643699645996e+00;-1.701355934143066406e+00;6.562880873680114746e-01;-7.401780486106872559e-01;1.463641375303268433e-01;8.000000000000000000e+00
1.268465816974639893e-01;-1.762360930442810059e+00;-1.583303689956665039e+00;-9.287607073783874512e-01;2.105453982949256897e-02;-3.700813949108123779e-01;8.000000000000000000e+00
-1.407173573970794678e-01;-1.500570297241210938e+00;-1.555341720581054688e+00;4.983014166355133057e-01;8.609926700592041016e-01;1.019182652235031128e-01;8.000000000000000000e+00
8.470798283815383911e-02;-1.745147228240966797e+00;-1.806960225105285645e+00;-7.457768321037292480e-01;-6.397586315870285034e-02;6.631168723106384277e-01;8.000000000000000000e+00
1.529231201857328415e-02;-1.687091112136840820e+00;-1.479788899421691895e+00;-3.772134184837341309e-01;-1.910149008035659790e-01;-9.062137603759765625e-01;8.000000000000000000e+00
3.794147819280624390e-02;-1.670768022537231445e+00;-1.493079543113708496e+00;-4.162485301494598389e-01;4.924020264297723770e-03;-9.092375636100769043e-01;8.000000000000000000e+00
-1.000060606747865677e-02;-1.715705037117004395e+00;-1.464181780815124512e+00;-3.545418679714202881e-01;-2.736233472824096680e-01;-8.941087126731872559e-01;8.000000000000000000e+00
1.178501918911933899e-01;-1.623073458671569824e+00;-1.657152414321899414e+00;3.407248258590698242e-01;8.652479052543640137e-01;-3.677671253681182861e-01;8.000000000000000000e+00
1.354208439588546753e-01;-1.740609765052795410e+00;-1.648232340812683105e+00;-9.933186173439025879e-01;8.996149152517318726e-02;-7.228402048349380493e-02;8.000000000000000000e+00
8.677705377340316772e-02;-1.665416955947875977e+00;-1.663214683532714844e+00;4.983904063701629639e-01;8.668411970138549805e-01;1.390626374632120132e-02;8.000000000000000000e+00
6.304978579282760620e-02;-1.664421796798706055e+00;-1.622941970825195312e+00;-3.903697431087493896e-01;-9.204601049423217773e-01;1.909816823899745941e-02;8.000000000000000000e+00
-1.621051311492919922e+00;2.178219109773635864e-01;-1.722411990165710449e+00;-6.177634596824645996e-01;-7.814138531684875488e-01;-8.809474110603332520e-02;8.000000000000000000e+00
-1.623813152313232422e+00;2.959749400615692139e-01;-1.583244323730468750e+00;-8.631939888000488281e-01;3.865569531917572021e-01;3.247613012790679932e-01;8.000000000000000000e+00
-1.349805593490600586e+00;2.517907321453094482e-01;-1.371399283409118652e+00;4.000059887766838074e-02;1.965802162885665894e-01;9.796714782714843750e-01;8.000000000000000000e+00
-1.412145733833312988e+00;1.990468055009841919e-01;-1.383023858070373535e+00;-1.095390841364860535e-01;3.272733092308044434e-02;9.934436082839965820e-01;8.000000000000000000e+00
-1.211320996284484863e+00;1.157467886805534363e-01;-1.870625019073486328e+00;6.210378408432006836e-01;-2.585387527942657471e-01;-7.399119138717651367e-01;8.000000000000000000e+00
-1.137654662132263184e+00;6.920065730810165405e-02;-1.584510803222656250e+00;8.511181473731994629e-01;-4.245217740535736084e-01;3.088352382183074951e-01;8.000000000000000000e+00
-1.627948045730590820e+00;2.663396596908569336e-01;-1.571662068367004395e+00;-9.406635165214538574e-01;1.556398719549179077e-01;3.015434443950653076e-01;8.000000000000000000e+00
-1.593772053718566895e+00;2.412337511777877808e-01;-1.822159647941589355e+00;-8.032862544059753418e-01;9.122153371572494507e-02;-5.885658264160156250e-01;8.000000000000000000e+00
-1.509593486785888672e+00;3.288076519966125488e-01;-1.775659441947937012e+00;7.754181623458862305e-01;-3.649995625019073486e-01;5.152688622474670410e-01;8.000000000000000000e+00
-1.091391086578369141e+00;1.530196666717529297e-01;-1.678585171699523926e+00;9.775090813636779785e-01;-1.732294112443923950e-01;-1.202812269330024719e-01;8.000000000000000000e+00
-1.486886620521545410e+00;1.647678613662719727e-01;-1.422167062759399414e+00;4.419977664947509766e-01;-5.312316417694091797e-01;7.227938175201416016e-01;8.000000000000000000e+00
-1.517414093017578125e+00;2.763719558715820312e-01;-1.894770622253417969e+00;-7.147134542465209961e-01;-7.729054242372512817e-02;-6.951336860656738281e-01;8.000000000000000000e+00
-1.152980327606201172e+00;1.948926895856857300e-01;-1.838306903839111328e+00;-6.866053491830825806e-02;3.555010855197906494e-01;-9.321506023406982422e-01;8.000000000000000000e+00
-1.428488016128540039e+00;3.167699873447418213e-01;-1.405120849609375000e+00;-2.422991096973419189e-01;4.011491835117340088e-01;8.833857774734497070e-01;8.000000000000000000e+00
-1.275765061378479004e+00;1.693552732467651367e-01;-1.927370190620422363e+00;1.596914678812026978e-01;-3.762708902359008789e-01;-9.126438498497009277e-01;8.000000000000000000e+00
-1.132163882255554199e+00;1.613524556159973145e-01;-1.510420680046081543e+00;8.526859283447265625e-01;-2.277919650077819824e-01;4.701463282108306885e-01;8.000000000000000000e+00
-1.171472311019897461e+00;7.974714040756225586e-02;-1.491744875907897949e+00;5.748018026351928711e-01;-4.859661757946014404e-01;6.583614945411682129e-01;8.000000000000000000e+00
-1.146887660026550293e+00;1.507055312395095825e-01;-1.826248407363891602e+00;3.627076745033264160e-01;5.160887837409973145e-01;-7.759481072425842285e-01;8.000000000000000000e+00
-1.579009890556335449e+00;2.015828788280487061e-01;-1.838791966438293457e+00;-6.594338417053222656e-01;-6.366755962371826172e-01;-3.997389376163482666e-01;8.000000000000000000e+00
-1.237626552581787109e+00;1.040197163820266724e-01;-1.425408720970153809e+00;-1.726413220167160034e-01;-5.674434304237365723e-01;8.051104545593261719e-01;8.000000000000000000e+00
-1.493662476539611816e+00;3.407311141490936279e-01;-1.873764514923095703e+00;-4.196248054504394531e-01;4.611558020114898682e-01;-7.818250656127929688e-01;8.000000000000000000e+00
-1.174333333969116211e+00;1.200734674930572510e-01;-1.851152539253234863e+00;5.494387745857238770e-01;-5.036289095878601074e-01;-6.666895151138305664e-01;8.000000000000000000e+00
-1.491265654563903809e+00;2.928989529609680176e-01;-1.895725011825561523e+00;-4.475849568843841553e-01;1.909355521202087402e-01;-8.736196756362915039e-01;8.000000000000000000e+00
-1.599820017814636230e+00;2.063401639461517334e-01;-1.567196488380432129e+00;-3.178868591785430908e-01;-9.477998614311218262e-01;-2.496576681733131409e-02;8.000000000000000000e+00
-1.267049312591552734e+00;8.376480638980865479e-02;-1.883538007736206055e+00;6.813310384750366211e-01;-7.250069975852966309e-01;-1.007608100771903992e-01;8.000000000000000000e+00
-1.381347179412841797e+00;1.721381396055221558e-01;-1.372403740882873535e+00;-1.392720341682434082e-01;-7.253236770629882812e-01;6.741726994514465332e-01;8.000000000000000000e+00
-1.244692087173461914e+00;2.470355629920959473e-01;-1.401524901390075684e+00;-3.469327464699745178e-02;5.305700898170471191e-01;8.469307422637939453e-01;8.000000000000000000e+00
-1.126830816268920898e+00;7.093189656734466553e-02;-1.607758045196533203e+00;7.876114845275878906e-01;-4.852740466594696045e-01;-3.797068595886230469e-01;8.000000000000000000e+00
-1.091970920562744141e+00;1.727132052183151245e-01;-1.693284511566162109e+00;9.853127002716064453e-01;9.234650433063507080e-02;-1.436351388692855835e-01;8.000000000000000000e+00
-1.209578871726989746e+00;1.902344375848770142e-01;-1.810757875442504883e+00;-6.725524067878723145e-01;3.165801167488098145e-01;6.689172387123107910e-01;8.000000000000000000e+00
-1.338240027427673340e+00;1.500486433506011963e-01;-1.386359930038452148e+00;-6.617963314056396484e-02;-7.597416043281555176e-01;6.468484401702880859e-01;8.000000000000000000e+00
-1.382954597473144531e+00;3.326255679130554199e-01;-1.866472363471984863e+00;4.656203389167785645e-01;8.782670497894287109e-01;1.088331565260887146e-01;8.000000000000000000e+00
-1.230429410934448242e+00;2.628660798072814941e-01;-1.889118432998657227e+00;4.738360047340393066e-01;8.130246996879577637e-01;-3.383344113826751709e-01;8.000000000000000000e+00
-1.537660598754882812e+00;3.317484259605407715e-01;-1.848206639289855957e+00;-2.827453017234802246e-01;-5.694461464881896973e-01;-7.718718051910400391e-01;8.000000000000000000e+00
-1.545569539070129395e+00;2.381957620382308960e-01;-1.870706319808959961e+00;-2.345987409353256226e-01;9.009625315666198730e-01;-3.650068342685699463e-01;8.000000000000000000e+00
-1.418475389480590820e+00;2.985807061195373535e-01;-1.855229735374450684e+00;3.677661716938018799e-01;-1.731121987104415894e-01;9.136630892753601074e-01;8.000000000000000000e+00
-1.576408624649047852e+00;3.331698477268218994e-01;-1.802020072937011719e+00;-7.668483853340148926e-01;-4.260457754135131836e-01;-4.800297617912292480e-01;8.000000000000000000e+00
-1.287705540657043457e+00;2.912583649158477783e-01;-1.417493343353271484e+00;4.838691651821136475e-01;8.697906136512756348e-01;9.661759436130523682e-02;8.000000000000000000e+00
-1.542883634567260742e+00;3.335669636726379395e-01;-1.683959364891052246e+00;9.013533592224121094e-01;-4.242791831493377686e-01;8.688729256391525269e-02;8.000000000000000000e+00
-1.466801643371582031e+00;1.625397056341171265e-01;-1.915445089340209961e+00;-8.626427650451660156e-01;-1.777134984731674194e-01;-4.735666811466217041e-01;8.000000000000000000e+00
-1.348119974136352539e+00;3.003265857696533203e-01;-1.932097911834716797e+00;8.060268312692642212e-02;5.568764209747314453e-01;-8.266751766204833984e-01;8.000000000000000000e+00
-1.181712627410888672e+00;1.489078253507614136e-02;-1.593180537223815918e+00;2.610044181346893311e-02;-8.161294460296630859e-01;5.772793292999267578e-01;8.000000000000000000e+00
-1.486746072769165039e+00;2.645865380764007568e-01;-1.828662157058715820e+00;5.933463573455810547e-01;-2.792960107326507568e-01;7.549396157264709473e-01;8.000000000000000000e+00
-1.168977975845336914e+00;2.075316458940505981e-01;-1.540032744407653809e+00;-7.753802537918090820e-01;3.649816513061523438e-01;-5.153385996818542480e-01;8.000000000000000000e+00
-1.574894428253173828e+00;2.022621631622314453e-01;-1.482307553291320801e+00;-6.848821043968200684e-01;-6.465180516242980957e-01;3.360815346240997314e-01;8.000000000000000000e+00
-1.145099282264709473e+00;7.017126679420471191e-02;-1.558079481124877930e+00;8.511181473731994629e-01;-4.245217740535736084e-01;3.088352382183074951e-01;8.000000000000000000e+00
-1.172046422958374023e+00;1.307561993598937988e-01;-1.841282129287719727e+00;6.550088524818420410e-01;-3.200283348560333252e-01;-6.845036745071411133e-01;8.000000000000000000e+00
-1.469128012657165527e+00;3.053455650806427002e-01;-1.413570761680603027e+00;-3.959656655788421631e-01;3.656672239303588867e-01;8.423174023628234863e-01;8.000000000000000000e+00
-1.256723046302795410e+00;1.856040060520172119e-01;-1.921867370605468750e+00;-1.034754440188407898e-01;1.632092297077178955e-01;-9.811502099037170410e-01;8.000000000000000000e+00
-1.150658130645751953e+00;5.915918573737144470e-02;-1.562021613121032715e+00;7.805083990097045898e-01;-5.449612140655517578e-01;3.063068985939025879e-01;8.000000000000000000e+00
-1.286907911300659180e+00;1.995056718587875366e-01;-1.933312535285949707e+00;-2.105564028024673462e-01;2.136411666870117188e-01;-9.539514183998107910e-01;8.000000000000000000e+00
-1.559604048728942871e+00;2.920131385326385498e-01;-1.700179696083068848e+00;9.013533592224121094e-01;-4.242791831493377686e-01;8.688729256391525269e-02;8.000000000000000000e+00
-1.135656356811523438e+00;1.362508088350296021e-01;-1.519785523414611816e+00;8.255099058151245117e-01;-3.688172399997711182e-01;4.272086620330810547e-01;8.000000000000000000e+00
-1.466633319854736328e+00;3.028361201286315918e-01;-1.411324262619018555e+00;-5.080718994140625000e-01;2.729626595973968506e-01;8.169175386428833008e-01;8.000000000000000000e+00
-1.236793994903564453e+00;3.880069032311439514e-02;-1.827255129814147949e+00;7.420267164707183838e-02;-9.508591294288635254e-01;-3.006006777286529541e-01;8.000000000000000000e+00
-1.186174392700195312e+00;1.761816591024398804e-01;-1.870005369186401367e+00;1.899510920047760010e-01;5.974034070968627930e-01;-7.791198492050170898e-01;8.000000000000000000e+00
-1.444845438003540039e+00;1.836329102516174316e-01;-1.387321591377258301e+00;-4.251519441604614258e-01;5.018741488456726074e-01;7.532383799552917480e-01;8.000000000000000000e+00
-1.198657631874084473e+00;4.759967699646949768e-02;-1.810846567153930664e+00;4.373988807201385498e-01;-7.619477510452270508e-01;-4.776167869567871094e-01;8.000000000000000000e+00
-1.400454998016357422e+00;1.972266286611557007e-01;-1.870999932289123535e+00;7.861339300870895386e-02;-3.700385987758636475e-02;9.962182044982910156e-01;8.000000000000000000e+00
-1.601941704750061035e+00;2.899616658687591553e-01;-1.527913689613342285e+00;-7.836601138114929199e-01;3.491252660751342773e-01;5.137979984283447266e-01;8.000000000000000000e+00
-1.338656902313232422e+00;2.743970155715942383e-01;-1.932006597518920898e+00;1.075148060917854309e-01;2.365162372589111328e-01;-9.656606912612915039e-01;8.000000000000000000e+00
-1.648569583892822266e+00;2.842333614826202393e-01;-1.649239301681518555e+00;-7.302960753440856934e-01;5.785663723945617676e-01;3.632197678089141846e-01;8.000000000000000000e+00
-1.224955439567565918e+00;2.169079482555389404e-01;-1.420377135276794434e+00;5.603913068771362305e-01;-8.260679841041564941e-01;5.977644771337509155e-02;8.000000000000000000e+00
-1.517854928970336914e+00;3.605833351612091064e-01;-1.734429240226745605e+00;8.329451680183410645e-01;-3.920782506465911865e-01;3.904829323291778564e-01;8.000000000000000000e+00
-1.346669435501098633e+00;1.442275494337081909e-01;-1.386551856994628906e+00;6.256948709487915039e-01;4.960285723209381104e-01;6.020478606224060059e-01;8.000000000000000000e+00
-1.300830364227294922e+00;7.382398843765258789e-02;-1.418886542320251465e+00;-1.472015380859375000e-01;-6.479086875915527344e-01;7.473593950271606445e-01;8.000000000000000000e+00
-1.134325146675109863e+00;1.632256060838699341e-01;-1.502847909927368164e+00;3.150062561035156250e-01;-9.388341903686523438e-01;1.391454339027404785e-01;8.000000000000000000e+00
-1.383916854858398438e+00;1.833661645650863647e-01;-1.380338788032531738e+00;7.869417220354080200e-02;-5.176247283816337585e-02;9.955540895462036133e-01;8.000000000000000000e+00
-1.567868590354919434e+00;1.978502124547958374e-01;-1.539044022560119629e+00;-2.265022546052932739e-01;-9.642588496208190918e-01;-1.374836117029190063e-01;8.000000000000000000e+00
-1.138406038284301758e+00;9.467683732509613037e-02;-1.548333525657653809e+00;-1.824360340833663940e-01;-9.604776501655578613e-01;2.102372050285339355e-01;8.000000000000000000e+00
-1.090387463569641113e+00;1.426293849945068359e-01;-1.659459948539733887e+00;2.875767946243286133e-01;-9.259176254272460938e-01;-2.449004203081130981e-01;8.000000000000000000e+00
-1.415936708450317383e+00;1.482112854719161987e-01;-1.937027096748352051e+00;-3.778023123741149902e-01;-4.169839024543762207e-01;-8.266739845275878906e-01;8.000000000000000000e+00
-1.529323220252990723e+00;3.573729991912841797e-01;-1.619758963584899902e+00;9.013533592224121094e-01;-4.242792725563049316e-01;-8.688719570636749268e-02;8.000000000000000000e+00
-1.107341885566711426e+00;2.048711627721786499e-01;-1.627746105194091797e+00;7.139974236488342285e-01;5.309657454490661621e-01;-4.563804566860198975e-01;8.000000000000000000e+00
-1.465229630470275879e+00;3.750819265842437744e-01;-1.481092572212219238e+00;4.092063009738922119e-01;9.061170816421508789e-01;1.072473600506782532e-01;8.000000000000000000e+00
-1.223672151565551758e+00;1.614980101585388184e-01;-1.557785630226135254e+00;-6.500927805900573730e-01;5.260499119758605957e-01;-5.483163595199584961e-01;8.000000000000000000e+00
-1.210144639015197754e+00;1.063880324363708496e-01;-1.659573554992675781e+00;-4.381831288337707520e-01;-5.630393624305725098e-01;-7.007012963294982910e-01;8.000000000000000000e+00
-1.195883154869079590e+00;9.256363660097122192e-02;-1.603099465370178223e+00;-4.373980462551116943e-01;-8.991832733154296875e-01;-1.234635151922702789e-02;8.000000000000000000e+00
-1.440039515495300293e+00;2.781065702438354492e-01;-1.629706859588623047e+00;3.903698325157165527e-01;9.204599857330322266e-01;1.909713633358478546e-02;8.000000000000000000e+00
-1.555502891540527344e+00;2.623586058616638184e-01;-1.588426232337951660e+00;-4.099331498146057129e-01;-9.121111631393432617e-01;2.814392792060971260e-03;8.000000000000000000e+00
-1.438417196273803711e+00;2.520743012428283691e-01;-1.504966139793395996e+00;2.069402486085891724e-01;-5.460647344589233398e-01;-8.117813467979431152e-01;8.000000000000000000e+00
-1.514155745506286621e+00;2.431095689535140991e-01;-1.809997200965881348e+00;-4.859760105609893799e-01;-8.667935729026794434e-01;1.117867007851600647e-01;8.000000000000000000e+00
-1.302191376686096191e+00;2.754410207271575928e-01;-1.862182497978210449e+00;5.486834421753883362e-02;4.398198723793029785e-01;8.964083194732666016e-01;8.000000000000000000e+00
-1.299092650413513184e+00;2.952430546283721924e-01;-1.862893581390380859e+00;7.874781638383865356e-02;3.751889765262603760e-01;9.235973358154296875e-01;8.000000000000000000e+00
-1.477821111679077148e+00;2.969705164432525635e-01;-1.780294060707092285e+00;7.554487586021423340e-01;-1.176953315734863281e-01;6.445501446723937988e-01;8.000000000000000000e+00
-1.456125974655151367e+00;3.658865392208099365e-01;-1.798949360847473145e+00;7.949371933937072754e-01;6.837005168199539185e-02;6.028270721435546875e-01;8.000000000000000000e+00
-1.147298216819763184e+00;1.983238458633422852e-01;-1.646544933319091797e+00;-6.505877375602722168e-01;7.587635517120361328e-01;-3.183557093143463135e-02;8.000000000000000000e+00
-1.457312703132629395e+00;2.760638892650604248e-01;-1.650111317634582520e+00;-4.983904659748077393e-01;-8.668410778045654297e-01;1.390732452273368835e-02;8.000000000000000000e+00
-1.224689841270446777e+00;1.730148345232009888e-01;-1.615083217620849609e+00;6.046950221061706543e-01;-7.778299450874328613e-01;1.712438613176345825e-01;8.000000000000000000e+00
-1.326748371124267578e+00;2.656663060188293457e-01;-1.479732036590576172e+00;1.265080720186233521e-01;2.926771640777587891e-01;-9.478058218955993652e-01;8.000000000000000000e+00
-1.254334926605224609e+00;2.578462660312652588e-01;-1.848011016845703125e+00;-1.509621292352676392e-01;5.251393914222717285e-01;8.375195860862731934e-01;8.000000000000000000e+00
-1.407723307609558105e+00;2.628951072692871094e-01;-1.700068354606628418e+00;4.096802473068237305e-01;9.121519923210144043e-01;-1.186561863869428635e-02;8.000000000000000000e+00
-1.353514194488525391e+00;2.272043675184249878e-01;-1.529297351837158203e+00;-4.219110310077667236e-01;-9.066075682640075684e-01;-7.331982254981994629e-03;8.000000000000000000e+00
-1.466736674308776855e+00;2.804999351501464844e-01;-1.609061002731323242e+00;-4.983904659748077393e-01;-8.668410778045654297e-01;1.390732452273368835e-02;8.000000000000000000e+00
-1.370203018188476562e+00;2.452336102724075317e-01;-1.695138335227966309e+00;4.225853979587554932e-01;9.062613844871520996e-01;-1.057846937328577042e-02;8.000000000000000000e+00
-1.219782829284667969e+00;2.601234018802642822e-01;-1.832197427749633789e+00;-2.934904098510742188e-01;5.894732475280761719e-01;7.525853514671325684e-01;8.000000000000000000e+00
-1.521119356155395508e+00;2.788220942020416260e-01;-1.727675080299377441e+00;5.001965165138244629e-01;-8.092767596244812012e-01;3.080171942710876465e-01;8.000000000000000000e+00
6.745638251304626465e-01;-7.727594971656799316e-01;-1.750847101211547852e+00;8.792429566383361816e-01;2.886745035648345947e-01;3.789445161819458008e-01;8.000000000000000000e+00
2.613320052623748779e-01;-6.600656509399414062e-01;-1.455710411071777344e+00;-6.242997050285339355e-01;-3.990683555603027344e-01;6.715610623359680176e-01;8.000000000000000000e+00
5.693866014480590820e-01;-7.373601198196411133e-01;-1.425473451614379883e+00;5.468252897262573242e-01;-2.456766963005065918e-01;8.003905415534973145e-01;8.000000000000000000e+00
6.801759600639343262e-01;-7.737988233566284180e-01;-1.756922125816345215e+00;7.786751985549926758e-01;-5.819221138954162598e-01;-2.345879822969436646e-01;8.000000000000000000e+00
3.026608228683471680e-01;-5.147815346717834473e-01;-1.451597571372985840e+00;-5.333982110023498535e-01;4.303806722164154053e-01;7.281887531280517578e-01;8.000000000000000000e+00
5.912559032440185547e-01;-7.152454257011413574e-01;-1.433828830718994141e+00;5.468252897262573242e-01;-2.456766963005065918e-01;8.003905415534973145e-01;8.000000000000000000e+00
6.775150895118713379e-01;-6.490303277969360352e-01;-1.634165406227111816e+00;-8.815310597419738770e-01;4.149484634399414062e-01;-2.252129167318344116e-01;8.000000000000000000e+00
5.607129931449890137e-01;-7.172372341156005859e-01;-1.903217196464538574e+00;-8.248760551214218140e-02;-7.571355253458023071e-02;-9.937118887901306152e-01;8.000000000000000000e+00
6.740562319755554199e-01;-7.170072197914123535e-01;-1.800295233726501465e+00;7.407632470130920410e-01;-3.289556503295898438e-01;-5.857114791870117188e-01;8.000000000000000000e+00
3.289805650711059570e-01;-4.781845211982727051e-01;-1.456117272377014160e+00;-3.128708004951477051e-01;8.461835980415344238e-01;4.313758611679077148e-01;8.000000000000000000e+00
1.742466837167739868e-01;-6.252943873405456543e-01;-1.619988441467285156e+00;-7.016647458076477051e-01;-7.057693600654602051e-01;9.775585681200027466e-02;8.000000000000000000e+00
4.890820980072021484e-01;-5.480262041091918945e-01;-1.878007531166076660e+00;4.123682379722595215e-01;8.633818626403808594e-01;2.907304465770721436e-01;8.000000000000000000e+00
3.760077357292175293e-01;-4.953494966030120850e-01;-1.443968653678894043e+00;3.133240640163421631e-01;9.247098565101623535e-01;2.161937057971954346e-01;8.000000000000000000e+00
7.102916836738586426e-01;-7.207118868827819824e-01;-1.606752634048461914e+00;9.258027672767639160e-01;-2.580812871456146240e-01;2.761943936347961426e-01;8.000000000000000000e+00
5.758154392242431641e-01;-7.642967104911804199e-01;-1.429231047630310059e+00;5.050123333930969238e-01;-3.578738570213317871e-01;7.854226827621459961e-01;8.000000000000000000e+00
2.837064266204833984e-01;-6.768718957901000977e-01;-1.835987687110900879e+00;-2.752532064914703369e-01;-9.413047432899475098e-01;1.953997164964675903e-01;8.000000000000000000e+00
3.318331241607666016e-01;-4.740457832813262939e-01;-1.524248600006103516e+00;5.987834930419921875e-01;7.890232205390930176e-01;-1.374800354242324829e-01;8.000000000000000000e+00
6.498706340789794922e-01;-8.341644406318664551e-01;-1.666869044303894043e+00;4.899984896183013916e-01;-6.948992609977722168e-01;5.263236165046691895e-01;8.000000000000000000e+00
6.508546471595764160e-01;-6.491957306861877441e-01;-1.453182697296142578e+00;7.890622019767761230e-01;2.233797311782836914e-01;5.722606778144836426e-01;8.000000000000000000e+00
3.002763688564300537e-01;-6.553295254707336426e-01;-1.424158930778503418e+00;3.454723358154296875e-01;-4.858035743236541748e-01;8.028971552848815918e-01;8.000000000000000000e+00
7.248910665512084961e-01;-6.800708174705505371e-01;-1.720737457275390625e+00;9.401481747627258301e-01;1.786227822303771973e-01;-2.901986539363861084e-01;8.000000000000000000e+00
6.759466528892517090e-01;-7.773545980453491211e-01;-1.743976593017578125e+00;5.289780497550964355e-01;-3.635289371013641357e-01;-7.668304443359375000e-01;8.000000000000000000e+00
4.330957233905792236e-01;-7.111157774925231934e-01;-1.941542744636535645e+00;5.076717212796211243e-02;-1.440476179122924805e-01;-9.882676601409912109e-01;8.000000000000000000e+00
5.071514248847961426e-01;-6.351207494735717773e-01;-1.385484576225280762e+00;2.038879096508026123e-01;-7.623301446437835693e-02;9.760216474533081055e-01;8.000000000000000000e+00
4.428307712078094482e-01;-6.688565015792846680e-01;-1.873661637306213379e+00;-2.037664651870727539e-01;9.591618925333023071e-02;9.743096232414245605e-01;8.000000000000000000e+00
3.849522173404693604e-01;-7.290595769882202148e-01;-1.893718242645263672e+00;-4.109885990619659424e-01;-8.928501009941101074e-01;-1.841390877962112427e-01;8.000000000000000000e+00
6.190170645713806152e-01;-6.123037338256835938e-01;-1.813566565513610840e+00;2.565672695636749268e-01;9.501329660415649414e-01;1.772584766149520874e-01;8.000000000000000000e+00
4.900429248809814453e-01;-6.289020180702209473e-01;-1.934627413749694824e+00;1.914460957050323486e-01;-6.620322167873382568e-02;-9.792678356170654297e-01;8.000000000000000000e+00
7.261613607406616211e-01;-7.095022797584533691e-01;-1.617904543876647949e+00;7.806888222694396973e-01;-6.022917628288269043e-01;-1.666425764560699463e-01;8.000000000000000000e+00
2.267119884490966797e-01;-5.854779481887817383e-01;-1.834553599357604980e+00;-8.637154698371887207e-01;-3.843084275722503662e-01;-3.260409533977508545e-01;8.000000000000000000e+00
3.644990324974060059e-01;-6.909627914428710938e-01;-1.921441674232482910e+00;-4.041158854961395264e-01;-3.658771812915802002e-01;-8.383461236953735352e-01;8.000000000000000000e+00
3.160117566585540771e-01;-4.702781438827514648e-01;-1.750668764114379883e+00;6.099427938461303711e-01;7.837868332862854004e-01;1.168244704604148865e-01;8.000000000000000000e+00
7.199008464813232422e-01;-7.089900970458984375e-01;-1.600845336914062500e+00;3.126611411571502686e-01;-9.377168416976928711e-01;-1.514269560575485229e-01;8.000000000000000000e+00
2.930429875850677490e-01;-5.590939521789550781e-01;-1.429071068763732910e+00;-3.303081095218658447e-01;5.692066550254821777e-01;7.529278993606567383e-01;8.000000000000000000e+00
2.049974203109741211e-01;-6.451634168624877930e-01;-1.747086405754089355e+00;-3.209493458271026611e-01;-9.463497400283813477e-01;3.759738057851791382e-02;8.000000000000000000e+00
6.971265673637390137e-01;-6.479073166847229004e-01;-1.558502316474914551e+00;7.581471800804138184e-01;6.195976138114929199e-01;2.032528072595596313e-01;8.000000000000000000e+00
3.990740478038787842e-01;-7.033366560935974121e-01;-1.938787817955017090e+00;-3.778023123741149902e-01;-4.169839024543762207e-01;-8.266739845275878906e-01;8.000000000000000000e+00
2.636381983757019043e-01;-6.602211594581604004e-01;-1.454358816146850586e+00;-9.972279071807861328e-01;6.514360755681991577e-02;3.595759719610214233e-02;8.000000000000000000e+00
3.189886808395385742e-01;-5.210015177726745605e-01;-1.881619453430175781e+00;-8.438342213630676270e-01;-3.933327496051788330e-01;-3.650109767913818359e-01;8.000000000000000000e+00
1.879559159278869629e-01;-5.165995955467224121e-01;-1.630507826805114746e+00;-9.901114702224731445e-01;1.130189076066017151e-01;8.310254663228988647e-02;8.000000000000000000e+00
5.840733051300048828e-01;-5.951277613639831543e-01;-1.429878711700439453e+00;5.648760795593261719e-01;7.029998898506164551e-01;4.320950508117675781e-01;8.000000000000000000e+00
4.705470204353332520e-01;-7.229757308959960938e-01;-1.386774539947509766e+00;-1.011542454361915588e-01;3.493387103080749512e-01;9.315204024314880371e-01;8.000000000000000000e+00
5.643445253372192383e-01;-7.370486855506896973e-01;-1.894485473632812500e+00;-4.247294962406158447e-01;-4.868972301483154297e-01;-7.632403969764709473e-01;8.000000000000000000e+00
5.750635862350463867e-01;-7.349913716316223145e-01;-1.428799748420715332e+00;5.784773230552673340e-01;-3.060981035232543945e-01;7.560873031616210938e-01;8.000000000000000000e+00
2.103935480117797852e-01;-6.271808743476867676e-01;-1.514096140861511230e+00;-8.813459277153015137e-01;-2.899754643440246582e-01;3.730195760726928711e-01;8.000000000000000000e+00
2.262335419654846191e-01;-5.929089188575744629e-01;-1.827335238456726074e+00;-7.333365082740783691e-01;1.659206748008728027e-01;-6.593085527420043945e-01;8.000000000000000000e+00
5.781237483024597168e-01;-8.070850372314453125e-01;-1.469627380371093750e+00;1.166737973690032959e-01;-7.721118330955505371e-01;6.246842741966247559e-01;8.000000000000000000e+00
3.743010461330413818e-01;-5.693688392639160156e-01;-1.467389702796936035e+00;3.676847815513610840e-01;-1.730746775865554810e-01;-9.137029647827148438e-01;8.000000000000000000e+00
6.447146534919738770e-01;-8.371517062187194824e-01;-1.626016974449157715e+00;4.112188220024108887e-01;-7.773240208625793457e-01;-4.760950505733489990e-01;8.000000000000000000e+00
3.297241926193237305e-01;-5.078875422477722168e-01;-1.441208839416503906e+00;-8.979877829551696777e-01;4.145976006984710693e-01;1.473999172449111938e-01;8.000000000000000000e+00
2.881670296192169189e-01;-4.509076476097106934e-01;-1.767190337181091309e+00;3.034855723381042480e-01;9.452875852584838867e-01;-1.196990534663200378e-01;8.000000000000000000e+00
1.919521242380142212e-01;-5.095569491386413574e-01;-1.679761886596679688e+00;-4.688585698604583740e-01;8.817695379257202148e-01;5.151832103729248047e-02;8.000000000000000000e+00
6.051277518272399902e-01;-6.331210732460021973e-01;-1.496555328369140625e+00;-6.726121306419372559e-01;3.166072964668273926e-01;-6.688444018363952637e-01;8.000000000000000000e+00
5.421679615974426270e-01;-6.256016492843627930e-01;-1.922642588615417480e+00;4.063541293144226074e-01;1.013630181550979614e-01;-9.080758690834045410e-01;8.000000000000000000e+00
2.301413267850875854e-01;-6.540571451187133789e-01;-1.504473090171813965e+00;-5.530688762664794922e-01;-8.299769163131713867e-01;7.247798144817352295e-02;8.000000000000000000e+00
3.955307006835937500e-01;-5.280819535255432129e-01;-1.402436256408691406e+00;-5.131963491439819336e-01;7.058188319206237793e-01;4.883125722408294678e-01;8.000000000000000000e+00
2.809324562549591064e-01;-5.052579641342163086e-01;-1.841932296752929688e+00;-6.239377260208129883e-01;4.355123043060302734e-01;-6.488688588142395020e-01;8.000000000000000000e+00
4.849377870559692383e-01;-6.479620337486267090e-01;-1.942859172821044922e+00;3.169081211090087891e-01;2.073993235826492310e-01;-9.255024194717407227e-01;8.000000000000000000e+00
3.069732785224914551e-01;-4.672639071941375732e-01;-1.580345749855041504e+00;8.266592025756835938e-01;-3.891198337078094482e-01;-4.064729809761047363e-01;8.000000000000000000e+00
3.651322722434997559e-01;-5.771371126174926758e-01;-1.924771428108215332e+00;6.144924089312553406e-02;-7.314776182174682617e-01;-6.790909767150878906e-01;8.000000000000000000e+00
5.367145538330078125e-01;-6.951336264610290527e-01;-1.400862455368041992e+00;3.831696808338165283e-01;-1.605980992317199707e-01;9.096093177795410156e-01;8.000000000000000000e+00
5.495043992996215820e-01;-7.112206220626831055e-01;-1.835725426673889160e+00;-4.662642180919647217e-01;2.194774001836776733e-01;8.569874167442321777e-01;8.000000000000000000e+00
1.608000844717025757e-01;-5.808596014976501465e-01;-1.682542562484741211e+00;-7.680384516716003418e-01;5.963339209556579590e-01;2.334584742784500122e-01;8.000000000000000000e+00
4.169158637523651123e-01;-6.082656383514404297e-01;-1.868616104125976562e+00;7.861339300870895386e-02;-3.700385987758636475e-02;9.962182044982910156e-01;8.000000000000000000e+00
5.184167623519897461e-01;-7.730804681777954102e-01;-1.427826881408691406e+00;8.391436189413070679e-02;-7.443763613700866699e-01;6.624668240547180176e-01;8.000000000000000000e+00
3.881312012672424316e-01;-5.937758088111877441e-01;-1.927285790443420410e+00;-1.886703670024871826e-01;1.085515767335891724e-01;-9.760226011276245117e-01;8.000000000000000000e+00
3.364399671554565430e-01;-6.242216825485229492e-01;-1.916863560676574707e+00;-4.475849568843841553e-01;1.909355521202087402e-01;-8.736196756362915039e-01;8.000000000000000000e+00
1.925640404224395752e-01;-5.648679137229919434e-01;-1.758136868476867676e+00;-9.150987863540649414e-01;2.573632001876831055e-01;-3.104165196418762207e-01;8.000000000000000000e+00
2.564831376075744629e-01;-5.354070067405700684e-01;-1.834014773368835449e+00;-7.123757600784301758e-01;3.470307588577270508e-01;-6.099921464920043945e-01;8.000000000000000000e+00
1.836498826742172241e-01;-5.870208740234375000e-01;-1.746944546699523926e+00;-9.150987863540649414e-01;2.573632001876831055e-01;-3.104165196418762207e-01;8.000000000000000000e+00
1.997078359127044678e-01;-5.075095295906066895e-01;-1.644005179405212402e+00;-9.063810110092163086e-01;4.068661928176879883e-01;1.137245744466781616e-01;8.000000000000000000e+00
5.429504513740539551e-01;-6.905488371849060059e-01;-1.412082433700561523e+00;-4.761408567428588867e-01;-8.857885003089904785e-02;-8.748963475227355957e-01;8.000000000000000000e+00
2.342365384101867676e-01;-6.222963929176330566e-01;-1.859553098678588867e+00;-8.238126039505004883e-01;-2.070243507623672485e-01;-5.277060866355895996e-01;8.000000000000000000e+00
6.300797462463378906e-01;-6.390252709388732910e-01;-1.882475376129150391e+00;6.074252128601074219e-01;3.352410495281219482e-01;-7.201722264289855957e-01;8.000000000000000000e+00
7.031040191650390625e-01;-7.501633167266845703e-01;-1.693164110183715820e+00;6.719771027565002441e-01;7.394255995750427246e-01;-4.118925705552101135e-02;8.000000000000000000e+00
3.386857211589813232e-01;-5.172652006149291992e-01;-1.555887222290039062e+00;8.540844321250915527e-01;-4.398056492209434509e-02;-5.182716250419616699e-01;8.000000000000000000e+00
4.961253106594085693e-01;-6.288772225379943848e-01;-1.840241193771362305e+00;-9.980680048465728760e-02;2.913399040699005127e-01;9.513988494873046875e-01;8.000000000000000000e+00
5.237562060356140137e-01;-6.564527750015258789e-01;-1.774296283721923828e+00;-4.021744728088378906e-01;-9.154376387596130371e-01;-1.515219360589981079e-02;8.000000000000000000e+00
2.562725245952606201e-01;-5.919618606567382812e-01;-1.610083341598510742e+00;-5.380375385284423828e-01;-8.422545790672302246e-01;3.351049497723579407e-02;8.000000000000000000e+00
6.560843586921691895e-01;-6.379613280296325684e-01;-1.584550857543945312e+00;-5.817514061927795410e-01;7.267272472381591797e-01;-3.652846217155456543e-01;8.000000000000000000e+00
