2.792280197143554688e+00;1.561111450195312500e+00;-1.292189717292785645e+00;7.359820604324340820e-01;-6.673145890235900879e-01;1.141122803092002869e-01;8.000000000000000000e+00
2.418034315109252930e+00;7.081285715103149414e-01;-1.359099388122558594e+00;4.472969565540552139e-03;9.357794523239135742e-01;-3.525575697422027588e-01;8.000000000000000000e+00
2.668742179870605469e+00;1.341763973236083984e+00;-1.497453212738037109e+00;8.149799704551696777e-01;-4.523139297962188721e-01;3.622426390647888184e-01;8.000000000000000000e+00
2.405611991882324219e+00;8.285368680953979492e-01;-1.448329091072082520e+00;-6.888666152954101562e-01;3.815923631191253662e-01;-6.163197159767150879e-01;8.000000000000000000e+00
2.904897212982177734e+00;1.788596034049987793e+00;-1.555750846862792969e+00;4.104630351066589355e-01;-8.862454891204833984e-01;2.146838158369064331e-01;8.000000000000000000e+00
1.651307702064514160e+00;1.258026719093322754e+00;-1.536107540130615234e+00;-9.160976409912109375e-01;2.974654138088226318e-01;2.688484191894531250e-01;8.000000000000000000e+00
3.001047611236572266e+00;1.175815224647521973e+00;-1.559943079948425293e+00;-2.890565097332000732e-01;9.510067701339721680e-01;-1.096920371055603027e-01;8.000000000000000000e+00
2.767464637756347656e+00;1.311921358108520508e+00;-1.522706627845764160e+00;-6.489940285682678223e-01;-5.207592248916625977e-02;7.590091228485107422e-01;8.000000000000000000e+00
2.750034809112548828e+00;2.007315158843994141e+00;-1.013756632804870605e+00;5.815564393997192383e-01;8.126036524772644043e-01;3.830573335289955139e-02;8.000000000000000000e+00
2.096485137939453125e+00;1.633152008056640625e+00;-7.487194538116455078e-01;-1.269487738609313965e-01;-1.656182408332824707e-01;9.779850244522094727e-01;8.000000000000000000e+00
1.500171899795532227e+00;9.895619750022888184e-01;-1.170129537582397461e+00;9.106347560882568359e-01;3.646893501281738281e-01;-1.942835301160812378e-01;8.000000000000000000e+00
2.813639879226684570e+00;1.838119387626647949e+00;-4.931057393550872803e-01;1.227485947310924530e-02;9.991924762725830078e-01;-3.825622797012329102e-02;8.000000000000000000e+00
2.466905355453491211e+00;7.160753011703491211e-01;-1.414891958236694336e+00;2.243690788745880127e-01;-3.348260819911956787e-01;-9.151775836944580078e-01;8.000000000000000000e+00
1.691564559936523438e+00;2.078167676925659180e+00;-7.138193845748901367e-01;-3.007731139659881592e-01;9.262700676918029785e-01;2.270665913820266724e-01;8.000000000000000000e+00
1.464577198028564453e+00;9.294922351837158203e-01;-1.339758634567260742e+00;-7.441741228103637695e-01;-6.327484846115112305e-01;2.140891104936599731e-01;8.000000000000000000e+00
2.815967798233032227e+00;1.909076690673828125e+00;-1.262349963188171387e+00;-9.682795405387878418e-01;2.279723435640335083e-01;-1.022904217243194580e-01;8.000000000000000000e+00
2.302105903625488281e+00;1.826579451560974121e+00;-5.595073103904724121e-01;-5.841179490089416504e-01;-8.132142573595046997e-02;8.075847625732421875e-01;8.000000000000000000e+00
2.526841640472412109e+00;1.791109204292297363e+00;-3.639790117740631104e-01;-7.689495682716369629e-01;3.742173314094543457e-03;6.392984986305236816e-01;8.000000000000000000e+00
1.702754735946655273e+00;8.675500750541687012e-01;-1.465564966201782227e+00;-1.522560268640518188e-01;7.614965438842773438e-01;-6.300325989723205566e-01;8.000000000000000000e+00
2.665448427200317383e+00;7.274402976036071777e-01;-1.536400914192199707e+00;2.340600192546844482e-01;4.552761912345886230e-01;8.590340614318847656e-01;8.000000000000000000e+00
2.743847131729125977e+00;1.729182839393615723e+00;-3.436180949211120605e-01;9.939926266670227051e-01;-9.116487205028533936e-02;-6.056042388081550598e-02;8.000000000000000000e+00
1.537829279899597168e+00;9.899727106094360352e-01;-8.676231503486633301e-01;-6.854116916656494141e-01;-7.056447267532348633e-01;1.796561628580093384e-01;8.000000000000000000e+00
2.934300661087036133e+00;1.864165306091308594e+00;-1.338521718978881836e+00;5.913705229759216309e-01;-7.814953923225402832e-01;1.988614201545715332e-01;8.000000000000000000e+00
1.619998693466186523e+00;1.014132022857666016e+00;-7.464657425880432129e-01;-5.227668881416320801e-01;-8.524295687675476074e-01;-8.858814835548400879e-03;8.000000000000000000e+00
2.152605772018432617e+00;1.468447566032409668e+00;-7.373955845832824707e-01;-3.141145706176757812e-01;-3.522276878356933594e-01;8.816278576850891113e-01;8.000000000000000000e+00
1.720448970794677734e+00;1.957545280456542969e+00;-8.115415573120117188e-01;-9.924504160881042480e-01;1.226345822215080261e-01;1.709531992673873901e-03;8.000000000000000000e+00
1.725323796272277832e+00;1.520663142204284668e+00;-1.485172867774963379e+00;-9.060654640197753906e-01;1.065177693963050842e-01;-4.095112383365631104e-01;8.000000000000000000e+00
3.178261041641235352e+00;1.627119541168212891e+00;-1.560248851776123047e+00;-6.792327761650085449e-01;-1.973475813865661621e-01;7.068922519683837891e-01;8.000000000000000000e+00
2.868927717208862305e+00;1.904998064041137695e+00;-9.024448990821838379e-01;5.666996240615844727e-01;-8.152033686637878418e-01;1.195617094635963440e-01;8.000000000000000000e+00
2.132936954498291016e+00;9.442161321640014648e-01;-1.525496125221252441e+00;-2.009045630693435669e-01;-9.795159697532653809e-01;1.363458950072526932e-02;8.000000000000000000e+00
1.577912807464599609e+00;1.006885647773742676e+00;-6.358709931373596191e-01;-7.597841620445251465e-01;-6.252401471138000488e-01;1.783331930637359619e-01;8.000000000000000000e+00
2.336660146713256836e+00;8.708443045616149902e-01;-1.128818869590759277e+00;-9.588766098022460938e-02;-9.592645168304443359e-01;2.657386958599090576e-01;8.000000000000000000e+00
2.130652427673339844e+00;9.356575012207031250e-01;-1.131806135177612305e+00;-8.493504524230957031e-01;-4.609170854091644287e-01;-2.572143673896789551e-01;8.000000000000000000e+00
1.723158597946166992e+00;2.135708332061767578e+00;-1.110136270523071289e+00;9.524246454238891602e-01;2.975769639015197754e-01;6.584291905164718628e-02;8.000000000000000000e+00
2.328892946243286133e+00;1.393918156623840332e+00;-5.369604229927062988e-01;-7.416377067565917969e-01;1.224216446280479431e-01;6.595349907875061035e-01;8.000000000000000000e+00
2.279851675033569336e+00;7.812680006027221680e-01;-1.386737823486328125e+00;-3.479017913341522217e-01;-6.907795071601867676e-01;6.338675618171691895e-01;8.000000000000000000e+00
2.707246541976928711e+00;1.345653414726257324e+00;-1.017167925834655762e+00;7.532582283020019531e-01;-6.509907841682434082e-01;9.387815743684768677e-02;8.000000000000000000e+00
2.940463066101074219e+00;1.793947458267211914e+00;-9.551673531532287598e-01;7.319074273109436035e-01;6.703038215637207031e-01;1.224921196699142456e-01;8.000000000000000000e+00
2.682724714279174805e+00;1.990817189216613770e+00;-1.375171899795532227e+00;-1.105141863226890564e-01;-9.855633378028869629e-01;-1.282636374235153198e-01;8.000000000000000000e+00
2.277010440826416016e+00;1.800747156143188477e+00;-5.810323357582092285e-01;-6.714926958084106445e-01;-1.550936549901962280e-01;7.245988845825195312e-01;8.000000000000000000e+00
2.491775989532470703e+00;1.942125320434570312e+00;-4.628846645355224609e-01;-8.033318519592285156e-01;3.371200561523437500e-01;4.909256994724273682e-01;8.000000000000000000e+00
1.478763103485107422e+00;8.894968628883361816e-01;-1.446230173110961914e+00;-3.735403418540954590e-01;-9.064526557922363281e-01;1.970054954290390015e-01;8.000000000000000000e+00
2.784124135971069336e+00;1.894297361373901367e+00;-5.413847565650939941e-01;4.715293049812316895e-01;-8.786469101905822754e-01;7.509759813547134399e-02;8.000000000000000000e+00
2.484899759292602539e+00;8.329212069511413574e-01;-1.096467494964599609e+00;-9.283486604690551758e-01;-3.549505472183227539e-01;1.103579774498939514e-01;8.000000000000000000e+00
2.909730195999145508e+00;1.413895845413208008e+00;-1.558294653892517090e+00;4.869213998317718506e-01;-3.230276703834533691e-01;8.115175962448120117e-01;8.000000000000000000e+00
2.842211961746215820e+00;1.053455114364624023e+00;-9.941229224205017090e-01;3.063713908195495605e-01;9.415855407714843750e-01;1.398331373929977417e-01;8.000000000000000000e+00
2.805450916290283203e+00;9.619278907775878906e-01;-7.358500361442565918e-01;8.623381257057189941e-01;-4.611890316009521484e-01;2.089917659759521484e-01;8.000000000000000000e+00
2.808988094329833984e+00;1.640431046485900879e+00;-1.081851840019226074e+00;9.508975744247436523e-01;-2.808896899223327637e-01;1.299796253442764282e-01;8.000000000000000000e+00
2.509020328521728516e+00;7.645255327224731445e-01;-1.185735583305358887e+00;6.732405163347721100e-03;-9.683101177215576172e-01;2.496599704027175903e-01;8.000000000000000000e+00
2.727184295654296875e+00;9.825013875961303711e-01;-1.574312210083007812e+00;2.123122103512287140e-04;-2.375220501562580466e-04;9.999999403953552246e-01;8.000000000000000000e+00
1.552768349647521973e+00;9.913180470466613770e-01;-8.054770231246948242e-01;-6.534534096717834473e-01;-7.374526858329772949e-01;1.707692146301269531e-01;8.000000000000000000e+00
3.074752807617187500e+00;1.738528847694396973e+00;-1.466114878654479980e+00;-1.280044317245483398e-01;8.561282157897949219e-01;-5.006588697433471680e-01;8.000000000000000000e+00
2.905137538909912109e+00;5.778522491455078125e-01;-1.574425578117370605e+00;-5.733690704801119864e-05;4.722308076452463865e-04;9.999998211860656738e-01;8.000000000000000000e+00
2.696426630020141602e+00;1.988573431968688965e+00;-5.516888499259948730e-01;-6.776979565620422363e-01;7.236595749855041504e-01;1.305460333824157715e-01;8.000000000000000000e+00
2.836544275283813477e+00;6.538186669349670410e-01;-1.557831048965454102e+00;-7.389920949935913086e-01;-2.428392171859741211e-01;6.284264326095581055e-01;8.000000000000000000e+00
1.675188779830932617e+00;1.644928812980651855e+00;-8.196101188659667969e-01;5.298672914505004883e-01;-3.618771731853485107e-01;7.669978141784667969e-01;8.000000000000000000e+00
2.457110881805419922e+00;8.907350897789001465e-01;-5.957891941070556641e-01;7.258436679840087891e-01;-6.633459329605102539e-01;-1.819977760314941406e-01;8.000000000000000000e+00
2.548559904098510742e+00;1.011766791343688965e+00;-2.300754785537719727e-01;-1.225001066923141479e-01;1.694130711257457733e-02;9.923238754272460938e-01;8.000000000000000000e+00
2.791896343231201172e+00;1.884203076362609863e+00;-1.219409108161926270e+00;-5.257578492164611816e-01;8.468942642211914062e-01;-7.967928051948547363e-02;8.000000000000000000e+00
2.714493274688720703e+00;6.464769840240478516e-01;-1.531538009643554688e+00;2.394710481166839600e-01;8.080192804336547852e-01;-5.382921695709228516e-01;8.000000000000000000e+00
2.474246501922607422e+00;7.935526967048645020e-01;-1.290167331695556641e+00;-3.098892867565155029e-01;-8.592538833618164062e-01;4.070028960704803467e-01;8.000000000000000000e+00
1.722894072532653809e+00;2.170043706893920898e+00;-1.295019268989562988e+00;8.788083791732788086e-01;4.703285694122314453e-01;8.054101467132568359e-02;8.000000000000000000e+00
2.748132705688476562e+00;1.989527463912963867e+00;-1.480562090873718262e+00;-1.550609618425369263e-01;-9.865811467170715332e-01;-5.112520232796669006e-02;8.000000000000000000e+00
1.642127037048339844e+00;9.811124801635742188e-01;-1.148156166076660156e+00;-4.304729700088500977e-01;-8.997653126716613770e-01;7.152193784713745117e-02;8.000000000000000000e+00
2.178521394729614258e+00;1.973758935928344727e+00;-5.065240263938903809e-01;4.056905582547187805e-02;2.694029808044433594e-01;9.621726274490356445e-01;8.000000000000000000e+00
2.398972511291503906e+00;9.293885827064514160e-01;-5.092707276344299316e-01;-5.416366457939147949e-02;-4.286745786666870117e-01;9.018338918685913086e-01;8.000000000000000000e+00
2.597248315811157227e+00;8.578022122383117676e-01;-3.534449636936187744e-01;-4.613071978092193604e-01;-8.291888236999511719e-01;3.156606554985046387e-01;8.000000000000000000e+00
2.480493068695068359e+00;8.358750343322753906e-01;-6.183350086212158203e-01;-9.803795218467712402e-01;1.273037046194076538e-01;1.504985839128494263e-01;8.000000000000000000e+00
2.763157606124877930e+00;1.739750981330871582e+00;-8.924198150634765625e-01;-4.819711148738861084e-01;8.555455803871154785e-01;-1.890653967857360840e-01;8.000000000000000000e+00
2.560097455978393555e+00;8.014259934425354004e-01;-1.090991616249084473e+00;9.969806671142578125e-01;-5.928475409746170044e-03;-7.742413133382797241e-02;8.000000000000000000e+00
1.728907823562622070e+00;1.834084749221801758e+00;-1.263538956642150879e+00;-9.510401487350463867e-01;-2.931186556816101074e-01;9.800054877996444702e-02;8.000000000000000000e+00
2.757897615432739258e+00;1.989691019058227539e+00;-7.858535647392272949e-01;5.245320796966552734e-01;8.497800827026367188e-01;5.234359204769134521e-02;8.000000000000000000e+00
1.655321478843688965e+00;8.396657705307006836e-01;-1.476066470146179199e+00;-3.681975007057189941e-01;-8.860859274864196777e-01;2.815711498260498047e-01;8.000000000000000000e+00
1.644654870033264160e+00;9.447485208511352539e-01;-1.491057395935058594e+00;-4.176870882511138916e-01;6.226212978363037109e-01;6.617250442504882812e-01;8.000000000000000000e+00
1.632261872291564941e+00;1.609698653221130371e+00;-8.041554093360900879e-01;8.374544233083724976e-02;-3.690874576568603516e-01;9.256138801574707031e-01;8.000000000000000000e+00
2.315541505813598633e+00;1.998602509498596191e+00;-5.867990851402282715e-01;7.150174677371978760e-02;8.847368955612182617e-01;4.605736732482910156e-01;8.000000000000000000e+00
2.416617393493652344e+00;1.397556900978088379e+00;-4.364857375621795654e-01;-7.589126825332641602e-01;1.077952608466148376e-01;6.422084569931030273e-01;8.000000000000000000e+00
2.629498004913330078e+00;5.771140456199645996e-01;-1.572046399116516113e+00;-2.160448431968688965e-01;2.162260264158248901e-01;-9.521401524543762207e-01;8.000000000000000000e+00
3.021153688430786133e+00;9.793745279312133789e-01;-1.511977434158325195e+00;-3.930439054965972900e-01;-7.804311811923980713e-02;9.162017703056335449e-01;8.000000000000000000e+00
1.577404022216796875e+00;2.093458414077758789e+00;-1.218841314315795898e+00;-9.191769957542419434e-01;3.286962211132049561e-01;2.169618308544158936e-01;8.000000000000000000e+00
2.832477092742919922e+00;1.995372176170349121e+00;-1.177062511444091797e+00;-1.709536164999008179e-01;9.851171374320983887e-01;1.786727458238601685e-02;8.000000000000000000e+00
2.645597934722900391e+00;1.988339424133300781e+00;-1.393613696098327637e+00;-9.380891919136047363e-02;9.596543908119201660e-01;2.650723755359649658e-01;8.000000000000000000e+00
2.758813381195068359e+00;1.818598866462707520e+00;-1.133704423904418945e+00;6.748908162117004395e-01;-7.315616011619567871e-01;9.664349257946014404e-02;8.000000000000000000e+00
1.590536475181579590e+00;1.193620443344116211e+00;-7.361259460449218750e-01;2.538545131683349609e-01;9.663895964622497559e-01;4.060924425721168518e-02;8.000000000000000000e+00
2.670862674713134766e+00;8.014221191406250000e-01;-1.574335932731628418e+00;2.028823073487728834e-04;-1.912368170451372862e-04;9.999999403953552246e-01;8.000000000000000000e+00
1.726770639419555664e+00;2.126379966735839844e+00;-1.216721653938293457e+00;9.817437529563903809e-01;-1.902030408382415771e-01;1.439300016500055790e-03;8.000000000000000000e+00
2.669553995132446289e+00;1.102831006050109863e+00;-3.155275881290435791e-01;9.984151721000671387e-01;-5.513257160782814026e-02;1.129331346601247787e-02;8.000000000000000000e+00
2.716568946838378906e+00;9.305802583694458008e-01;-5.150581002235412598e-01;2.542426586151123047e-01;-9.660280942916870117e-01;4.637159034609794617e-02;8.000000000000000000e+00
2.812512159347534180e+00;9.870099425315856934e-01;-1.435143947601318359e+00;5.799972414970397949e-01;-8.089518547058105469e-01;9.591708332300186157e-02;8.000000000000000000e+00
1.893254995346069336e+00;2.061660766601562500e+00;-1.137705802917480469e+00;-3.708166778087615967e-01;9.275857210159301758e-01;-4.560435190796852112e-02;8.000000000000000000e+00
2.527571678161621094e+00;7.662286758422851562e-01;-8.260993361473083496e-01;-7.346662878990173340e-01;6.740427613258361816e-01;-7.701867073774337769e-02;8.000000000000000000e+00
1.663073182106018066e+00;9.845677018165588379e-01;-1.415044546127319336e+00;2.665637135505676270e-01;-9.616543650627136230e-01;-6.453330069780349731e-02;8.000000000000000000e+00
2.652698516845703125e+00;2.025228977203369141e+00;-9.540982842445373535e-01;-8.259044289588928223e-01;5.441387891769409180e-01;1.476305574178695679e-01;8.000000000000000000e+00
1.717977881431579590e+00;1.946550250053405762e+00;-7.621766328811645508e-01;-9.622119665145874023e-01;2.610866427421569824e-01;-7.734251022338867188e-02;8.000000000000000000e+00
1.649252772331237793e+00;1.250487089157104492e+00;-1.534399151802062988e+00;-9.280490875244140625e-01;3.028540909290313721e-01;2.168048769235610962e-01;8.000000000000000000e+00
2.947108507156372070e+00;9.125143289566040039e-01;-1.454400300979614258e+00;-4.280092120170593262e-01;1.930959373712539673e-01;8.829054832458496094e-01;8.000000000000000000e+00
3.046647787094116211e+00;7.907642126083374023e-01;-1.574407100677490234e+00;-1.520709716714918613e-03;5.522512830793857574e-03;-9.999835491180419922e-01;8.000000000000000000e+00
2.562227010726928711e+00;7.752284407615661621e-01;-1.111057877540588379e+00;9.221878051757812500e-01;3.562921285629272461e-01;-1.504181921482086182e-01;8.000000000000000000e+00
1.677581667900085449e+00;9.617214798927307129e-01;-1.157070279121398926e+00;4.501531422138214111e-01;8.922366499900817871e-01;-3.572044521570205688e-02;8.000000000000000000e+00
2.120752096176147461e+00;1.110563039779663086e+00;-5.962550044059753418e-01;2.508460879325866699e-01;9.335713982582092285e-01;2.559699714183807373e-01;8.000000000000000000e+00
1.761779308319091797e+00;1.846675395965576172e+00;-6.359003782272338867e-01;3.247834146022796631e-01;-8.355056643486022949e-01;4.432223439216613770e-01;8.000000000000000000e+00
2.778306484222412109e+00;1.106478452682495117e+00;-1.312851905822753906e+00;9.873285889625549316e-01;-1.291385889053344727e-01;9.222436696290969849e-02;8.000000000000000000e+00
2.914523363113403320e+00;1.749364376068115234e+00;-1.268720746040344238e+00;-5.234160423278808594e-01;7.851946949958801270e-01;-3.309153020381927490e-01;8.000000000000000000e+00
1.838603138923645020e+00;2.048922061920166016e+00;-8.069895505905151367e-01;-4.634617269039154053e-01;8.855813741683959961e-01;-3.080318123102188110e-02;8.000000000000000000e+00
2.521791696548461914e+00;8.991495966911315918e-01;-3.186700046062469482e-01;-9.895966053009033203e-01;-1.379621624946594238e-01;-4.080378264188766479e-02;8.000000000000000000e+00
2.713722705841064453e+00;9.800168275833129883e-01;-4.146956503391265869e-01;8.908184766769409180e-01;3.384813070297241211e-01;3.031053543090820312e-01;8.000000000000000000e+00
3.015824794769287109e+00;1.770408034324645996e+00;-1.278651118278503418e+00;6.632760763168334961e-01;7.420789003372192383e-01;9.687016159296035767e-02;8.000000000000000000e+00
2.677306890487670898e+00;1.323059082031250000e+00;-6.029749512672424316e-01;9.903245568275451660e-01;1.295568197965621948e-01;-4.972208291292190552e-02;8.000000000000000000e+00
2.496711730957031250e+00;1.011962652206420898e+00;-2.787017524242401123e-01;-7.649822235107421875e-01;8.901944011449813843e-02;6.378697156906127930e-01;8.000000000000000000e+00
2.467823505401611328e+00;1.468662619590759277e+00;-3.866375386714935303e-01;-7.706632614135742188e-01;1.034240722656250000e-01;6.287938356399536133e-01;8.000000000000000000e+00
1.593744874000549316e+00;1.008393049240112305e+00;-8.363305926322937012e-01;-7.036484032869338989e-02;9.937673807144165039e-01;-8.645904064178466797e-02;8.000000000000000000e+00
2.651157379150390625e+00;1.983145117759704590e+00;-1.033394932746887207e+00;-6.784513592720031738e-01;-7.340744137763977051e-01;2.895619347691535950e-02;8.000000000000000000e+00
2.768854141235351562e+00;1.042665004730224609e+00;-8.481808304786682129e-01;-1.687945872545242310e-01;9.842482209205627441e-01;5.257217958569526672e-02;8.000000000000000000e+00
1.591411948204040527e+00;2.022289752960205078e+00;-1.320201039314270020e+00;-4.027470946311950684e-01;-9.131456017494201660e-01;6.292749941349029541e-02;8.000000000000000000e+00
2.700534820556640625e+00;1.519471645355224609e+00;-7.812969088554382324e-01;9.878688454627990723e-01;-1.550188660621643066e-01;-9.183327667415142059e-03;8.000000000000000000e+00
2.483237743377685547e+00;6.330890059471130371e-01;-1.473965883255004883e+00;-4.390299618244171143e-01;-6.039454340934753418e-01;6.652087569236755371e-01;8.000000000000000000e+00
3.004611968994140625e+00;1.988112926483154297e+00;-1.376699686050415039e+00;9.706633090972900391e-01;7.006634026765823364e-02;2.300074398517608643e-01;8.000000000000000000e+00
2.980559587478637695e+00;8.346951007843017578e-01;-1.490043640136718750e+00;9.121061116456985474e-02;5.367656350135803223e-01;8.387867212295532227e-01;8.000000000000000000e+00
2.580882787704467773e+00;8.223351240158081055e-01;-1.306093931198120117e+00;8.591934442520141602e-01;7.068149745464324951e-02;5.067453384399414062e-01;8.000000000000000000e+00
1.747302770614624023e+00;2.079353332519531250e+00;-1.048584103584289551e+00;-9.948506355285644531e-01;-1.003630831837654114e-01;-1.412087120115756989e-02;8.000000000000000000e+00
2.659646987915039062e+00;1.102567791938781738e+00;-1.563010692596435547e+00;-5.086624622344970703e-01;8.377542346715927124e-02;8.568804264068603516e-01;8.000000000000000000e+00
3.018064737319946289e+00;1.749014377593994141e+00;-1.217845201492309570e+00;9.524433016777038574e-01;2.255818098783493042e-01;2.048527002334594727e-01;8.000000000000000000e+00
2.981152772903442383e+00;1.923751592636108398e+00;-1.453427910804748535e+00;8.618212342262268066e-01;-5.042871832847595215e-01;5.439250171184539795e-02;8.000000000000000000e+00
2.765527009963989258e+00;1.679670572280883789e+00;-6.323026418685913086e-01;9.621407389640808105e-01;2.630099952220916748e-01;7.149048149585723877e-02;8.000000000000000000e+00
1.799623131752014160e+00;9.354916214942932129e-01;-1.387313246726989746e+00;6.551430225372314453e-01;-7.502533793449401855e-01;8.892404288053512573e-02;8.000000000000000000e+00
2.025237083435058594e+00;1.657934188842773438e+00;-7.495912909507751465e-01;-8.131220191717147827e-02;-2.856194078922271729e-01;9.548873305320739746e-01;8.000000000000000000e+00
1.830597877502441406e+00;1.122177720069885254e+00;-5.281674265861511230e-01;1.043487489223480225e-01;9.279134273529052734e-01;3.578937649726867676e-01;8.000000000000000000e+00
2.937448024749755859e+00;6.722218990325927734e-01;-1.531524181365966797e+00;2.443450093269348145e-01;-1.803036779165267944e-01;9.527781605720520020e-01;8.000000000000000000e+00
2.887325763702392578e+00;2.004478693008422852e+00;-1.526095271110534668e+00;2.179213464260101318e-01;9.420803189277648926e-01;2.549407780170440674e-01;8.000000000000000000e+00
2.067086219787597656e+00;1.732305169105529785e+00;-7.131127715110778809e-01;1.305459439754486084e-01;-3.409030735492706299e-01;9.309902191162109375e-01;8.000000000000000000e+00
2.714495658874511719e+00;1.393747210502624512e+00;-5.664328932762145996e-01;7.740862369537353516e-01;-6.308915615081787109e-01;5.259656533598899841e-02;8.000000000000000000e+00
1.676333785057067871e+00;9.702690243721008301e-01;-1.123283863067626953e+00;-4.067626297473907471e-01;-9.135122895240783691e-01;-6.282731890678405762e-03;8.000000000000000000e+00
1.759449243545532227e+00;8.777194619178771973e-01;-1.412856101989746094e+00;9.669208526611328125e-01;-9.036037325859069824e-02;2.385351508855819702e-01;8.000000000000000000e+00
2.052535295486450195e+00;1.125326275825500488e+00;-5.983725786209106445e-01;1.404422372579574585e-01;9.146590232849121094e-01;3.790445625782012939e-01;8.000000000000000000e+00
2.563227653503417969e+00;7.284545302391052246e-01;-1.357524752616882324e+00;9.552289843559265137e-01;-1.992946416139602661e-01;2.186759263277053833e-01;8.000000000000000000e+00
1.688606977462768555e+00;9.238035678863525391e-01;-1.088129758834838867e+00;8.822745680809020996e-01;-3.987345397472381592e-01;2.502045035362243652e-01;8.000000000000000000e+00
2.482016324996948242e+00;1.027352094650268555e+00;-2.984505593776702881e-01;-7.643882632255554199e-01;8.931663632392883301e-02;6.385397911071777344e-01;8.000000000000000000e+00
1.587891578674316406e+00;1.430655956268310547e+00;-1.571727275848388672e+00;1.405547708272933960e-01;2.829174995422363281e-01;9.487898349761962891e-01;8.000000000000000000e+00
2.707484006881713867e+00;4.670399129390716553e-01;-1.402432203292846680e+00;9.014146924018859863e-01;-3.217000365257263184e-01;-2.897596657276153564e-01;8.000000000000000000e+00
2.882056236267089844e+00;7.749456763267517090e-01;-1.536338090896606445e+00;3.892040848731994629e-01;4.893289413303136826e-03;-9.211385250091552734e-01;8.000000000000000000e+00
1.696781992912292480e+00;1.841017723083496094e+00;-7.581449747085571289e-01;-5.765571594238281250e-01;7.763103842735290527e-01;-2.548019289970397949e-01;8.000000000000000000e+00
2.059965610504150391e+00;1.310330271720886230e+00;-7.383853793144226074e-01;-2.319076061248779297e-01;4.154562205076217651e-02;9.718502163887023926e-01;8.000000000000000000e+00
2.468663692474365234e+00;7.962599396705627441e-01;-1.288213491439819336e+00;-2.658638358116149902e-01;-8.711971044540405273e-01;4.127129018306732178e-01;8.000000000000000000e+00
2.856602907180786133e+00;8.569880723953247070e-01;-1.574295759201049805e+00;-5.292207468301057816e-03;3.285761177539825439e-02;9.994460344314575195e-01;8.000000000000000000e+00
2.252331972122192383e+00;8.895153999328613281e-01;-1.061930775642395020e+00;1.356662213802337646e-01;-9.442410469055175781e-01;3.000060021877288818e-01;8.000000000000000000e+00
2.779998779296875000e+00;1.537653923034667969e+00;-1.476542711257934570e+00;3.529822528362274170e-01;7.585533857345581055e-01;-5.477228760719299316e-01;8.000000000000000000e+00
2.957911491394042969e+00;1.892898678779602051e+00;-1.332826375961303711e+00;8.460478186607360840e-01;-5.170969367027282715e-01;1.296680122613906860e-01;8.000000000000000000e+00
2.185487985610961914e+00;1.202901601791381836e+00;-6.744228005409240723e-01;-7.543991208076477051e-01;-1.299265921115875244e-01;6.434291601181030273e-01;8.000000000000000000e+00
1.539797306060791016e+00;2.112206459045410156e+00;-1.411710143089294434e+00;-8.389140963554382324e-01;5.072120428085327148e-01;1.973808258771896362e-01;8.000000000000000000e+00
2.699006795883178711e+00;1.171859025955200195e+00;-5.948861241340637207e-01;7.086660861968994141e-01;-6.953724622726440430e-01;1.193712279200553894e-01;8.000000000000000000e+00
2.365070104598999023e+00;1.532330513000488281e+00;-5.225518345832824707e-01;-7.613718509674072266e-01;1.355546414852142334e-01;6.339856386184692383e-01;8.000000000000000000e+00
2.860467433929443359e+00;1.823482632637023926e+00;-6.333335041999816895e-01;5.479686856269836426e-01;8.349511027336120605e-01;5.086300149559974670e-02;8.000000000000000000e+00
2.386024951934814453e+00;6.838870048522949219e-01;-1.500782728195190430e+00;-2.273732572793960571e-01;5.699227452278137207e-01;-7.896134257316589355e-01;8.000000000000000000e+00
1.582065820693969727e+00;1.527023196220397949e+00;-1.123048424720764160e+00;-9.306986331939697266e-01;5.880163982510566711e-02;-3.610295355319976807e-01;8.000000000000000000e+00
2.658151626586914062e+00;1.307899832725524902e+00;-1.503072500228881836e+00;9.944878816604614258e-01;-1.027214676141738892e-01;-2.103158272802829742e-02;8.000000000000000000e+00
2.791450738906860352e+00;1.368712902069091797e+00;-1.543772697448730469e+00;6.645051389932632446e-02;-7.088102102279663086e-01;7.022624015808105469e-01;8.000000000000000000e+00
2.782114267349243164e+00;1.886767387390136719e+00;-6.183995008468627930e-01;4.618626832962036133e-01;-8.839125037193298340e-01;7.335819303989410400e-02;8.000000000000000000e+00
1.904084205627441406e+00;2.066813945770263672e+00;-9.524092674255371094e-01;2.657191455364227295e-02;9.990850687026977539e-01;3.351084887981414795e-02;8.000000000000000000e+00
2.761396169662475586e+00;9.291525483131408691e-01;-8.722642064094543457e-01;-1.492760032415390015e-01;-9.887239336967468262e-01;-1.190270483493804932e-02;8.000000000000000000e+00
1.602060079574584961e+00;1.046295881271362305e+00;-1.161176085472106934e+00;-9.103323221206665039e-01;-4.136726260185241699e-01;1.303821895271539688e-02;8.000000000000000000e+00
1.783825755119323730e+00;2.108272314071655273e+00;-8.085060119628906250e-01;9.850794076919555664e-01;1.549222916364669800e-01;7.495089620351791382e-02;8.000000000000000000e+00
1.905898213386535645e+00;1.836536407470703125e+00;-6.183018088340759277e-01;-5.384694039821624756e-02;-8.311048746109008789e-01;5.535026788711547852e-01;8.000000000000000000e+00
2.522738456726074219e+00;6.316962838172912598e-01;-1.502930998802185059e+00;-2.421792149543762207e-01;-9.677982330322265625e-01;6.867231428623199463e-02;8.000000000000000000e+00
1.917418241500854492e+00;2.051251411437988281e+00;-8.412082791328430176e-01;5.746071934700012207e-01;8.029078841209411621e-01;1.586363762617111206e-01;8.000000000000000000e+00
2.249471426010131836e+00;2.004076004028320312e+00;-7.953415513038635254e-01;-1.584025621414184570e-01;9.589118361473083496e-01;-2.353652119636535645e-01;8.000000000000000000e+00
1.995659470558166504e+00;9.560046195983886719e-01;-1.113371372222900391e+00;2.534590661525726318e-01;-9.568505287170410156e-01;1.421106010675430298e-01;8.000000000000000000e+00
2.561873912811279297e+00;2.017953395843505859e+00;-1.063089489936828613e+00;2.596913278102874756e-01;9.656140804290771484e-01;1.224320288747549057e-02;8.000000000000000000e+00
2.225181102752685547e+00;9.303871989250183105e-01;-1.416851043701171875e+00;-6.399897336959838867e-01;-7.453019618988037109e-01;-1.869174242019653320e-01;8.000000000000000000e+00
2.684079170227050781e+00;1.159363150596618652e+00;-5.655752420425415039e-01;8.328988552093505859e-01;-5.438002943992614746e-01;1.027648672461509705e-01;8.000000000000000000e+00
1.673592448234558105e+00;1.267922520637512207e+00;-1.316731095314025879e+00;-9.793754816055297852e-01;1.846116036176681519e-02;-2.012033164501190186e-01;8.000000000000000000e+00
1.521143317222595215e+00;9.458200931549072266e-01;-1.101496815681457520e+00;-5.790662765502929688e-01;-7.902846932411193848e-01;2.003306150436401367e-01;8.000000000000000000e+00
2.027582406997680664e+00;7.409052252769470215e-01;-1.559573888778686523e+00;5.096315741539001465e-01;5.907112956047058105e-01;6.255685091018676758e-01;8.000000000000000000e+00
2.812464237213134766e+00;9.962419867515563965e-01;-1.438626050949096680e+00;-6.237463951110839844e-01;7.484902143478393555e-01;-2.251730710268020630e-01;8.000000000000000000e+00
1.617270708084106445e+00;1.142011761665344238e+00;-1.377915501594543457e+00;-7.505646944046020508e-01;6.551156044006347656e-01;8.646444976329803467e-02;8.000000000000000000e+00
2.658882379531860352e+00;1.973656892776489258e+00;-1.189649820327758789e+00;3.337218463420867920e-01;9.423866868019104004e-01;-2.317374385893344879e-02;8.000000000000000000e+00
1.440863370895385742e+00;9.172836542129516602e-01;-1.562689304351806641e+00;3.674836754798889160e-01;-3.360269069671630859e-01;-8.672033548355102539e-01;8.000000000000000000e+00
1.640162706375122070e+00;1.263402342796325684e+00;-1.161023974418640137e+00;-9.790349602699279785e-01;2.019466161727905273e-01;2.660974673926830292e-02;8.000000000000000000e+00
1.571138262748718262e+00;1.281174540519714355e+00;-9.288920760154724121e-01;-6.873919963836669922e-01;-5.971948504447937012e-01;-4.133407175540924072e-01;8.000000000000000000e+00
2.264171361923217773e+00;1.751328587532043457e+00;-6.665406823158264160e-01;1.188872158527374268e-01;-9.127682447433471680e-01;3.907940387725830078e-01;8.000000000000000000e+00
2.077224731445312500e+00;1.022285580635070801e+00;-5.060178637504577637e-01;1.858397200703620911e-02;1.592540880665183067e-03;9.998260736465454102e-01;8.000000000000000000e+00
2.674195289611816406e+00;1.326938271522521973e+00;-2.514557242393493652e-01;4.030522406101226807e-01;-4.362038150429725647e-02;9.141367673873901367e-01;8.000000000000000000e+00
1.408176898956298828e+00;1.084140062332153320e+00;-1.500026106834411621e+00;7.279105193447321653e-05;9.998812675476074219e-01;1.540981698781251907e-02;8.000000000000000000e+00
2.016641616821289062e+00;1.162332892417907715e+00;-6.657866239547729492e-01;7.854328304529190063e-02;8.851308822631835938e-01;4.586656391620635986e-01;8.000000000000000000e+00
2.710013866424560547e+00;1.659285187721252441e+00;-1.267385840415954590e+00;9.328106045722961426e-01;3.507180809974670410e-01;-8.283191174268722534e-02;8.000000000000000000e+00
2.287547588348388672e+00;8.289967775344848633e-01;-1.279240965843200684e+00;3.297099843621253967e-02;-9.605154991149902344e-01;2.762658596038818359e-01;8.000000000000000000e+00
2.589823961257934570e+00;2.002800226211547852e+00;-1.446959137916564941e+00;1.065156534314155579e-01;9.779390096664428711e-01;-1.796935647726058960e-01;8.000000000000000000e+00
2.286492347717285156e+00;1.048959255218505859e+00;-4.895751178264617920e-01;-2.919651269912719727e-01;-8.822034597396850586e-01;-3.694231510162353516e-01;8.000000000000000000e+00
2.713923692703247070e+00;1.946879863739013672e+00;-1.351597666740417480e+00;8.489601612091064453e-01;5.105426907539367676e-01;-1.364288926124572754e-01;8.000000000000000000e+00
2.442087173461914062e+00;7.835964560508728027e-01;-1.530207753181457520e+00;5.329839587211608887e-01;4.060172736644744873e-01;-7.423463463783264160e-01;8.000000000000000000e+00
2.025728464126586914e+00;1.338109254837036133e+00;-7.610921263694763184e-01;-4.498865902423858643e-01;4.915872216224670410e-01;7.456165552139282227e-01;8.000000000000000000e+00
1.729998707771301270e+00;2.158416748046875000e+00;-1.349784374237060547e+00;9.947861433029174805e-01;9.731046855449676514e-02;3.051572293043136597e-02;8.000000000000000000e+00
2.509291887283325195e+00;6.165377497673034668e-01;-1.464051842689514160e+00;6.691439747810363770e-01;-7.411123514175415039e-01;-5.476126074790954590e-02;8.000000000000000000e+00
2.101841449737548828e+00;9.375532865524291992e-01;-1.467501282691955566e+00;-1.378499567508697510e-01;-9.801472425460815430e-01;-1.425087004899978638e-01;8.000000000000000000e+00
2.509398221969604492e+00;8.196374773979187012e-01;-8.031055927276611328e-01;7.883908152580261230e-01;-6.148541569709777832e-01;1.985475420951843262e-02;8.000000000000000000e+00
1.659123182296752930e+00;1.641700744628906250e+00;-1.268198370933532715e+00;-8.189990520477294922e-01;4.347053766250610352e-01;-3.745288550853729248e-01;8.000000000000000000e+00
2.535852670669555664e+00;7.633302211761474609e-01;-1.500881552696228027e+00;8.576611876487731934e-01;5.049046874046325684e-01;-9.740965813398361206e-02;8.000000000000000000e+00
2.159201860427856445e+00;8.887738585472106934e-01;-1.245545744895935059e+00;-8.202859759330749512e-01;4.881931841373443604e-01;-2.979907095432281494e-01;8.000000000000000000e+00
2.853459358215332031e+00;1.498636126518249512e+00;-1.535435557365417480e+00;-6.030313968658447266e-01;1.251277476549148560e-01;-7.878428101539611816e-01;8.000000000000000000e+00
2.909801959991455078e+00;1.060332655906677246e+00;-1.207958817481994629e+00;3.445108532905578613e-01;9.301683902740478516e-01;1.268817931413650513e-01;8.000000000000000000e+00
2.451906681060791016e+00;8.172687888145446777e-01;-8.161149621009826660e-01;-6.852400898933410645e-01;7.281338572502136230e-01;1.633984968066215515e-02;8.000000000000000000e+00
3.224981069564819336e+00;1.591185688972473145e+00;-1.574296712875366211e+00;-2.028823073487728834e-04;1.912368170451372862e-04;-9.999999403953552246e-01;8.000000000000000000e+00
2.331553936004638672e+00;8.105487823486328125e-01;-1.528058886528015137e+00;8.569434881210327148e-01;-5.100505948066711426e-01;-7.413663715124130249e-02;8.000000000000000000e+00
2.787434577941894531e+00;9.830221533775329590e-01;-6.475710868835449219e-01;9.630115628242492676e-01;2.230255492031574249e-02;2.685355544090270996e-01;8.000000000000000000e+00
2.757462978363037109e+00;1.909969806671142578e+00;-7.878617644309997559e-01;-1.893750131130218506e-01;9.783976674079895020e-01;-8.291614800691604614e-02;8.000000000000000000e+00
2.718887567520141602e+00;1.551401376724243164e+00;-4.030406177043914795e-01;9.925042986869812012e-01;1.005279719829559326e-01;-6.949251145124435425e-02;8.000000000000000000e+00
2.781460762023925781e+00;1.779087662696838379e+00;-7.618018388748168945e-01;-6.472938060760498047e-01;7.472724914550781250e-01;-1.503148674964904785e-01;8.000000000000000000e+00
1.501758813858032227e+00;1.101007223129272461e+00;-1.202063202857971191e+00;-3.736458346247673035e-02;9.931676983833312988e-01;1.105526983737945557e-01;8.000000000000000000e+00
2.837004661560058594e+00;1.758698105812072754e+00;-6.281519532203674316e-01;3.120404183864593506e-01;-9.341914653778076172e-01;1.729653924703598022e-01;8.000000000000000000e+00
2.071002721786499023e+00;9.119948148727416992e-01;-7.364097237586975098e-01;6.123929619789123535e-01;-7.278154492378234863e-01;3.086413443088531494e-01;8.000000000000000000e+00
2.722791671752929688e+00;1.921997904777526855e+00;-1.032002568244934082e+00;7.762470245361328125e-01;6.304259896278381348e-01;1.900638104416429996e-03;8.000000000000000000e+00
2.307395458221435547e+00;2.024338006973266602e+00;-1.272874355316162109e+00;-2.703950107097625732e-01;9.148280024528503418e-01;-2.999604046344757080e-01;8.000000000000000000e+00
1.719367742538452148e+00;1.948686361312866211e+00;-7.845538854598999023e-01;-9.890562295913696289e-01;1.463140249252319336e-01;-1.897220127284526825e-02;8.000000000000000000e+00
2.745423316955566406e+00;5.966545343399047852e-01;-1.495184540748596191e+00;-3.856044113636016846e-01;-7.582212090492248535e-01;5.257468223571777344e-01;8.000000000000000000e+00
2.531450510025024414e+00;7.021421194076538086e-01;-1.258096933364868164e+00;-7.493262290954589844e-01;6.543657183647155762e-01;-1.015660688281059265e-01;8.000000000000000000e+00
2.696059226989746094e+00;5.395183563232421875e-01;-1.376522660255432129e+00;8.640276640653610229e-02;6.236286759376525879e-01;-7.769310474395751953e-01;8.000000000000000000e+00
2.370497941970825195e+00;2.003577947616577148e+00;-1.383888840675354004e+00;-2.508012652397155762e-01;9.067192673683166504e-01;-3.390559256076812744e-01;8.000000000000000000e+00
2.367717266082763672e+00;7.889117598533630371e-01;-1.334074378013610840e+00;-1.540267318487167358e-01;-7.359167337417602539e-01;6.593195796012878418e-01;8.000000000000000000e+00
1.701136350631713867e+00;1.900327205657958984e+00;-7.168631553649902344e-01;-2.655951678752899170e-01;-8.568859100341796875e-01;4.418208003044128418e-01;8.000000000000000000e+00
2.789791345596313477e+00;1.826612472534179688e+00;-5.259952545166015625e-01;-5.325936675071716309e-01;8.381467461585998535e-01;-1.177031919360160828e-01;8.000000000000000000e+00
2.584331989288330078e+00;4.328079819679260254e-01;-1.560897707939147949e+00;-3.417654633522033691e-01;-4.297397732734680176e-01;-8.357751369476318359e-01;8.000000000000000000e+00
2.656488656997680664e+00;6.250672936439514160e-01;-1.494176387786865234e+00;-9.980145096778869629e-01;1.049404498189687729e-02;6.210257485508918762e-02;8.000000000000000000e+00
2.437877178192138672e+00;9.611960053443908691e-01;-3.656433820724487305e-01;-1.765269935131072998e-01;-9.153544902801513672e-01;-3.618899285793304443e-01;8.000000000000000000e+00
2.658694028854370117e+00;7.635451555252075195e-01;-9.926416277885437012e-01;2.106224298477172852e-01;9.566300511360168457e-01;-2.012385874986648560e-01;8.000000000000000000e+00
2.906385421752929688e+00;1.809381127357482910e+00;-8.472564816474914551e-01;5.444594621658325195e-01;8.362990617752075195e-01;6.455806642770767212e-02;8.000000000000000000e+00
1.663067460060119629e+00;9.765914082527160645e-01;-1.310595870018005371e+00;1.813739389181137085e-01;-9.805522561073303223e-01;-7.497240602970123291e-02;8.000000000000000000e+00
1.537070751190185547e+00;9.237438440322875977e-01;-1.164416074752807617e+00;-3.366300463676452637e-01;-9.272349476814270020e-01;1.640596389770507812e-01;8.000000000000000000e+00
2.739905595779418945e+00;1.829431295394897461e+00;-2.538212835788726807e-01;4.839519560337066650e-01;-6.277224421501159668e-02;8.728402853012084961e-01;8.000000000000000000e+00
1.836282253265380859e+00;9.060524106025695801e-01;-1.486218571662902832e+00;8.842887878417968750e-01;-1.123752295970916748e-01;4.532164335250854492e-01;8.000000000000000000e+00
2.789119005203247070e+00;1.635038018226623535e+00;-8.945817351341247559e-01;9.895997047424316406e-01;-1.207014769315719604e-01;7.825414836406707764e-02;8.000000000000000000e+00
2.738404273986816406e+00;6.340239048004150391e-01;-1.154694676399230957e+00;3.682649731636047363e-01;-8.640871047973632812e-01;3.431244492530822754e-01;8.000000000000000000e+00
2.061060190200805664e+00;9.402651190757751465e-01;-1.439279198646545410e+00;-1.961062550544738770e-01;-9.636362791061401367e-01;-1.815146058797836304e-01;8.000000000000000000e+00
2.727255821228027344e+00;7.153084874153137207e-01;-9.799426794052124023e-01;9.850556850433349609e-01;1.447094380855560303e-01;9.340432286262512207e-02;8.000000000000000000e+00
2.741325378417968750e+00;1.799850702285766602e+00;-1.134324312210083008e+00;7.876271009445190430e-01;-6.091331839561462402e-01;9.273779392242431641e-02;8.000000000000000000e+00
2.746548891067504883e+00;1.019624471664428711e+00;-1.226400971412658691e+00;1.609015166759490967e-01;9.838436841964721680e-01;-7.850124686956405640e-02;8.000000000000000000e+00
2.711502552032470703e+00;6.165857315063476562e-01;-1.480879902839660645e+00;1.326315999031066895e-01;-8.571328520774841309e-01;4.977269768714904785e-01;8.000000000000000000e+00
3.100505590438842773e+00;1.639931917190551758e+00;-1.528771162033081055e+00;1.283331215381622314e-01;-8.170441389083862305e-01;5.621114969253540039e-01;8.000000000000000000e+00
1.528090715408325195e+00;9.598590731620788574e-01;-1.541332721710205078e+00;6.822236776351928711e-01;5.015800595283508301e-01;5.319665074348449707e-01;8.000000000000000000e+00
2.133352756500244141e+00;1.122263669967651367e+00;-6.514642834663391113e-01;2.263032048940658569e-01;8.758385777473449707e-01;4.262553751468658447e-01;8.000000000000000000e+00
1.681318044662475586e+00;2.122809410095214844e+00;-9.318635463714599609e-01;-1.795061826705932617e-01;9.652711153030395508e-01;1.898132860660552979e-01;8.000000000000000000e+00
2.941339015960693359e+00;1.978762626647949219e+00;-1.103123188018798828e+00;9.008249640464782715e-01;3.753494322299957275e-01;2.182366251945495605e-01;8.000000000000000000e+00
2.168884754180908203e+00;1.511494278907775879e+00;-7.197803258895874023e-01;-4.332480132579803467e-01;-6.408507376909255981e-02;8.989934325218200684e-01;8.000000000000000000e+00
1.746202111244201660e+00;1.345393657684326172e+00;-7.731426954269409180e-01;5.936017036437988281e-01;-1.600098609924316406e-01;7.886912822723388672e-01;8.000000000000000000e+00
2.417164802551269531e+00;1.365589380264282227e+00;-4.305056929588317871e-01;-7.577655911445617676e-01;1.067219749093055725e-01;6.437404155731201172e-01;8.000000000000000000e+00
1.580447554588317871e+00;1.543196558952331543e+00;-1.033454179763793945e+00;-6.461017131805419922e-01;1.776063591241836548e-01;7.422994971275329590e-01;8.000000000000000000e+00
1.687311768531799316e+00;1.366541504859924316e+00;-1.524635910987854004e+00;-9.310697913169860840e-01;2.875153422355651855e-01;2.245972454547882080e-01;8.000000000000000000e+00
1.531072735786437988e+00;9.808312654495239258e-01;-1.089414715766906738e+00;4.257601201534271240e-01;8.900275230407714844e-01;-1.630318313837051392e-01;8.000000000000000000e+00
3.008147001266479492e+00;1.694288492202758789e+00;-1.222789525985717773e+00;7.418030500411987305e-01;-5.943753123283386230e-01;3.105580210685729980e-01;8.000000000000000000e+00
2.803751707077026367e+00;1.045320034027099609e+00;-1.201632022857666016e+00;-4.032401442527770996e-01;9.103689789772033691e-01;-9.287463873624801636e-02;8.000000000000000000e+00
2.013604402542114258e+00;9.319054484367370605e-01;-5.910344123840332031e-01;3.210539519786834717e-01;-8.888701796531677246e-01;3.268549442291259766e-01;8.000000000000000000e+00
2.811856508255004883e+00;9.815500378608703613e-01;-1.477455258369445801e+00;-5.187620520591735840e-01;7.464459538459777832e-01;-4.167784154415130615e-01;8.000000000000000000e+00
2.885337591171264648e+00;9.874069690704345703e-01;-1.012172222137451172e+00;9.367769956588745117e-01;-2.517704069614410400e-01;2.430235594511032104e-01;8.000000000000000000e+00
2.674071073532104492e+00;1.329711318016052246e+00;-8.779892325401306152e-01;7.938036322593688965e-01;-6.064598560333251953e-01;4.562959447503089905e-02;8.000000000000000000e+00
1.575194478034973145e+00;2.131519317626953125e+00;-1.336819171905517578e+00;-6.626840829849243164e-01;7.323902249336242676e-01;1.563790589570999146e-01;8.000000000000000000e+00
2.320104360580444336e+00;1.038908362388610840e+00;-4.374393820762634277e-01;-4.895081222057342529e-01;4.620608687400817871e-01;7.395143508911132812e-01;8.000000000000000000e+00
1.856541037559509277e+00;1.641328215599060059e+00;-7.872503995895385742e-01;-6.657288074493408203e-01;-3.218946456909179688e-01;6.731930971145629883e-01;8.000000000000000000e+00
1.676763892173767090e+00;2.144469261169433594e+00;-1.048259019851684570e+00;-2.576487362384796143e-01;9.482079744338989258e-01;1.857924014329910278e-01;8.000000000000000000e+00
1.913031339645385742e+00;1.862721323966979980e+00;-5.679172873497009277e-01;-1.823181957006454468e-01;-8.702166676521301270e-01;4.576932787895202637e-01;8.000000000000000000e+00
2.350432395935058594e+00;1.984062671661376953e+00;-8.625838756561279297e-01;2.406462430953979492e-01;9.225795865058898926e-01;-3.015564382076263428e-01;8.000000000000000000e+00
2.456123828887939453e+00;5.134109258651733398e-01;-1.403125166893005371e+00;-9.937424063682556152e-01;-1.100678890943527222e-01;1.900249905884265900e-02;8.000000000000000000e+00
2.722843170166015625e+00;1.555928349494934082e+00;-3.411173224449157715e-01;9.913600683212280273e-01;-1.054865345358848572e-01;-7.796021550893783569e-02;8.000000000000000000e+00
2.381486654281616211e+00;1.417985320091247559e+00;-4.811898767948150635e-01;-7.536996006965637207e-01;1.147293373942375183e-01;6.471276283264160156e-01;8.000000000000000000e+00
1.523230195045471191e+00;1.054754614830017090e+00;-8.560197949409484863e-01;-7.738969326019287109e-01;6.044386625289916992e-01;1.890435367822647095e-01;8.000000000000000000e+00
2.821650266647338867e+00;1.178616285324096680e+00;-1.543548107147216797e+00;-9.273408651351928711e-01;-3.520886600017547607e-02;3.725576102733612061e-01;8.000000000000000000e+00
3.011467695236206055e+00;1.446692585945129395e+00;-1.574281096458435059e+00;-2.028823073487728834e-04;1.912368170451372862e-04;-9.999999403953552246e-01;8.000000000000000000e+00
2.703818559646606445e+00;1.128243684768676758e+00;-8.652070760726928711e-01;7.358876466751098633e-01;-6.645994186401367188e-01;1.295256763696670532e-01;8.000000000000000000e+00
2.951312065124511719e+00;9.346971511840820312e-01;-1.451182246208190918e+00;3.809542581439018250e-02;8.053091913461685181e-02;9.960237741470336914e-01;8.000000000000000000e+00
2.815492630004882812e+00;1.948719143867492676e+00;-1.349993824958801270e+00;-8.288257122039794922e-01;-5.531281232833862305e-01;-8.424457162618637085e-02;8.000000000000000000e+00
2.661456108093261719e+00;1.967490553855895996e+00;-1.266515374183654785e+00;3.323635458946228027e-01;9.342094063758850098e-01;-1.295653879642486572e-01;8.000000000000000000e+00
2.640887260437011719e+00;5.507909655570983887e-01;-1.538230776786804199e+00;-7.362851500511169434e-02;-9.385544061660766602e-01;-3.371861875057220459e-01;8.000000000000000000e+00
