2.652654610574245453e-02;-2.931128978729248047e+00;1.408178091049194336e+00;0.000000000000000000e+00;1.000000000000000000e+00;0.000000000000000000e+00;3.000000000000000000e+00
3.064776659011840820e+00;-2.931128978729248047e+00;-4.977282583713531494e-01;0.000000000000000000e+00;1.000000000000000000e+00;0.000000000000000000e+00;3.000000000000000000e+00
-2.173944950103759766e+00;-2.931128978729248047e+00;1.294010162353515625e+00;0.000000000000000000e+00;1.000000000000000000e+00;0.000000000000000000e+00;3.000000000000000000e+00
1.748906373977661133e+00;-2.931128978729248047e+00;-1.628539204597473145e+00;0.000000000000000000e+00;1.000000000000000000e+00;0.000000000000000000e+00;3.000000000000000000e+00
2.474685430526733398e+00;-2.931128978729248047e+00;1.186416149139404297e+00;0.000000000000000000e+00;1.000000000000000000e+00;0.000000000000000000e+00;3.000000000000000000e+00
2.837250947952270508e+00;-2.931128978729248047e+00;-1.313904523849487305e+00;0.000000000000000000e+00;1.000000000000000000e+00;0.000000000000000000e+00;3.000000000000000000e+00
-1.077910780906677246e+00;-2.931128978729248047e+00;1.770158886909484863e+00;0.000000000000000000e+00;1.000000000000000000e+00;0.000000000000000000e+00;3.000000000000000000e+00
-1.430352926254272461e+00;-2.931128978729248047e+00;-1.580285072326660156e+00;0.000000000000000000e+00;1.000000000000000000e+00;0.000000000000000000e+00;3.000000000000000000e+00
5.855711698532104492e-01;-2.931128978729248047e+00;7.322421073913574219e-01;0.000000000000000000e+00;1.000000000000000000e+00;0.000000000000000000e+00;3.000000000000000000e+00
-1.489194273948669434e+00;-2.931128978729248047e+00;4.131401181221008301e-01;0.000000000000000000e+00;1.000000000000000000e+00;0.000000000000000000e+00;3.000000000000000000e+00
-1.251819968223571777e+00;-2.931128978729248047e+00;1.429522991180419922e+00;0.000000000000000000e+00;1.000000000000000000e+00;0.000000000000000000e+00;3.000000000000000000e+00
-1.966072767972946167e-01;-2.931128978729248047e+00;-1.288939356803894043e+00;0.000000000000000000e+00;1.000000000000000000e+00;0.000000000000000000e+00;3.000000000000000000e+00
2.074617147445678711e+00;-2.931128978729248047e+00;1.627983808517456055e+00;0.000000000000000000e+00;1.000000000000000000e+00;0.000000000000000000e+00;3.000000000000000000e+00
-2.109743833541870117e+00;-2.931128978729248047e+00;-1.323315024375915527e+00;0.000000000000000000e+00;1.000000000000000000e+00;0.000000000000000000e+00;3.000000000000000000e+00
-2.156571865081787109e+00;-2.931128978729248047e+00;1.149667263031005859e+00;0.000000000000000000e+00;1.000000000000000000e+00;0.000000000000000000e+00;3.000000000000000000e+00
-5.003420710563659668e-01;-2.931128978729248047e+00;-6.771237850189208984e-01;0.000000000000000000e+00;1.000000000000000000e+00;0.000000000000000000e+00;3.000000000000000000e+00
6.020855307579040527e-01;-2.931128978729248047e+00;3.666685521602630615e-02;0.000000000000000000e+00;1.000000000000000000e+00;0.000000000000000000e+00;3.000000000000000000e+00
-1.189216852188110352e+00;-2.931128978729248047e+00;-2.631235420703887939e-01;0.000000000000000000e+00;1.000000000000000000e+00;0.000000000000000000e+00;3.000000000000000000e+00
-7.705752849578857422e-01;-2.931128978729248047e+00;-1.528423666954040527e+00;0.000000000000000000e+00;1.000000000000000000e+00;0.000000000000000000e+00;3.000000000000000000e+00
-2.180950641632080078e+00;-2.931128978729248047e+00;-1.741425633430480957e+00;0.000000000000000000e+00;1.000000000000000000e+00;0.000000000000000000e+00;3.000000000000000000e+00
9.849917292594909668e-01;-2.931128978729248047e+00;1.612252831459045410e+00;0.000000000000000000e+00;1.000000000000000000e+00;0.000000000000000000e+00;3.000000000000000000e+00
1.217727780342102051e+00;-2.931128978729248047e+00;5.895546674728393555e-01;0.000000000000000000e+00;1.000000000000000000e+00;0.000000000000000000e+00;3.000000000000000000e+00
-1.638207316398620605e+00;-2.931128978729248047e+00;-1.200352430343627930e+00;0.000000000000000000e+00;1.000000000000000000e+00;0.000000000000000000e+00;3.000000000000000000e+00
5.766867399215698242e-01;-2.931128978729248047e+00;1.460622906684875488e+00;0.000000000000000000e+00;1.000000000000000000e+00;0.000000000000000000e+00;3.000000000000000000e+00
-2.518742799758911133e+00;-2.931128978729248047e+00;-1.702696800231933594e+00;0.000000000000000000e+00;1.000000000000000000e+00;0.000000000000000000e+00;3.000000000000000000e+00
-9.203048422932624817e-03;-2.931128978729248047e+00;-2.089944928884506226e-01;0.000000000000000000e+00;1.000000000000000000e+00;0.000000000000000000e+00;3.000000000000000000e+00
-2.660986661911010742e+00;-2.931128978729248047e+00;2.226879596710205078e-01;0.000000000000000000e+00;1.000000000000000000e+00;0.000000000000000000e+00;3.000000000000000000e+00
1.640168786048889160e+00;-2.931128978729248047e+00;7.062091827392578125e-01;0.000000000000000000e+00;1.000000000000000000e+00;0.000000000000000000e+00;3.000000000000000000e+00
2.549211740493774414e+00;-2.931128978729248047e+00;9.051213860511779785e-01;0.000000000000000000e+00;1.000000000000000000e+00;0.000000000000000000e+00;3.000000000000000000e+00
-2.405339002609252930e+00;-2.931128978729248047e+00;1.470060706138610840e+00;0.000000000000000000e+00;1.000000000000000000e+00;0.000000000000000000e+00;3.000000000000000000e+00
-3.108873128890991211e+00;-2.931128978729248047e+00;4.780499041080474854e-01;0.000000000000000000e+00;1.000000000000000000e+00;0.000000000000000000e+00;3.000000000000000000e+00
2.661496400833129883e+00;-2.931128978729248047e+00;1.110963940620422363e+00;0.000000000000000000e+00;1.000000000000000000e+00;0.000000000000000000e+00;3.000000000000000000e+00
2.975728273391723633e+00;-2.931128978729248047e+00;5.460652112960815430e-01;0.000000000000000000e+00;1.000000000000000000e+00;0.000000000000000000e+00;3.000000000000000000e+00
-2.747084498405456543e-01;-2.931128978729248047e+00;8.402760624885559082e-01;0.000000000000000000e+00;1.000000000000000000e+00;0.000000000000000000e+00;3.000000000000000000e+00
7.551987171173095703e-01;-2.931128978729248047e+00;-8.199884891510009766e-01;0.000000000000000000e+00;1.000000000000000000e+00;0.000000000000000000e+00;3.000000000000000000e+00
1.346917867660522461e+00;-2.931128978729248047e+00;1.193751335144042969e+00;0.000000000000000000e+00;1.000000000000000000e+00;0.000000000000000000e+00;3.000000000000000000e+00
2.637913465499877930e+00;-2.931128978729248047e+00;-9.769521951675415039e-01;0.000000000000000000e+00;1.000000000000000000e+00;0.000000000000000000e+00;3.000000000000000000e+00
-1.936467647552490234e+00;-2.931128978729248047e+00;1.628726363182067871e+00;0.000000000000000000e+00;1.000000000000000000e+00;0.000000000000000000e+00;3.000000000000000000e+00
1.108080297708511353e-01;-2.931128978729248047e+00;-8.248435258865356445e-01;0.000000000000000000e+00;1.000000000000000000e+00;0.000000000000000000e+00;3.000000000000000000e+00
-2.174190431833267212e-01;-2.931128978729248047e+00;1.592046737670898438e+00;0.000000000000000000e+00;1.000000000000000000e+00;0.000000000000000000e+00;3.000000000000000000e+00
-1.644294977188110352e+00;-2.931128978729248047e+00;9.409697651863098145e-01;0.000000000000000000e+00;1.000000000000000000e+00;0.000000000000000000e+00;3.000000000000000000e+00
2.262303352355957031e+00;-2.931128978729248047e+00;6.374725103378295898e-01;0.000000000000000000e+00;1.000000000000000000e+00;0.000000000000000000e+00;3.000000000000000000e+00
-2.088436603546142578e+00;-2.931128978729248047e+00;-5.096352100372314453e-01;0.000000000000000000e+00;1.000000000000000000e+00;0.000000000000000000e+00;3.000000000000000000e+00
1.186406254768371582e+00;-2.931128978729248047e+00;5.043194890022277832e-01;0.000000000000000000e+00;1.000000000000000000e+00;0.000000000000000000e+00;3.000000000000000000e+00
-1.202281236648559570e+00;-2.931128978729248047e+00;-6.484079957008361816e-01;0.000000000000000000e+00;1.000000000000000000e+00;0.000000000000000000e+00;3.000000000000000000e+00
-2.783372163772583008e+00;-2.931128978729248047e+00;-3.048675358295440674e-01;0.000000000000000000e+00;1.000000000000000000e+00;0.000000000000000000e+00;3.000000000000000000e+00
2.287419319152832031e+00;-2.931128978729248047e+00;2.749439775943756104e-01;0.000000000000000000e+00;1.000000000000000000e+00;0.000000000000000000e+00;3.000000000000000000e+00
1.068048119544982910e+00;-2.931128978729248047e+00;1.634570360183715820e+00;0.000000000000000000e+00;1.000000000000000000e+00;0.000000000000000000e+00;3.000000000000000000e+00
-2.033633708953857422e+00;-2.931128978729248047e+00;-1.213686242699623108e-01;0.000000000000000000e+00;1.000000000000000000e+00;0.000000000000000000e+00;3.000000000000000000e+00
-7.989234924316406250e-01;-2.931128978729248047e+00;4.395613670349121094e-01;0.000000000000000000e+00;1.000000000000000000e+00;0.000000000000000000e+00;3.000000000000000000e+00
-2.199706315994262695e+00;-2.931128978729248047e+00;-6.901909112930297852e-01;0.000000000000000000e+00;1.000000000000000000e+00;0.000000000000000000e+00;3.000000000000000000e+00
-7.912106513977050781e-01;-2.931128978729248047e+00;-1.683317542076110840e+00;0.000000000000000000e+00;1.000000000000000000e+00;0.000000000000000000e+00;3.000000000000000000e+00
2.654906272888183594e+00;-2.931128978729248047e+00;-9.037454128265380859e-01;0.000000000000000000e+00;1.000000000000000000e+00;0.000000000000000000e+00;3.000000000000000000e+00
-3.129178285598754883e+00;-2.931128978729248047e+00;5.605017542839050293e-01;0.000000000000000000e+00;1.000000000000000000e+00;0.000000000000000000e+00;3.000000000000000000e+00
5.555080771446228027e-01;-2.931128978729248047e+00;-9.253451228141784668e-01;0.000000000000000000e+00;1.000000000000000000e+00;0.000000000000000000e+00;3.000000000000000000e+00
-2.481039524078369141e+00;-2.931128978729248047e+00;3.719287365674972534e-02;0.000000000000000000e+00;1.000000000000000000e+00;0.000000000000000000e+00;3.000000000000000000e+00
1.767143979668617249e-02;-2.931128978729248047e+00;-1.743814826011657715e+00;0.000000000000000000e+00;1.000000000000000000e+00;0.000000000000000000e+00;3.000000000000000000e+00
-4.267128407955169678e-01;-2.931128978729248047e+00;-7.523939013481140137e-01;0.000000000000000000e+00;1.000000000000000000e+00;0.000000000000000000e+00;3.000000000000000000e+00
-2.739940881729125977e+00;-2.931128978729248047e+00;1.003110766410827637e+00;0.000000000000000000e+00;1.000000000000000000e+00;0.000000000000000000e+00;3.000000000000000000e+00
-1.139310002326965332e+00;-2.931128978729248047e+00;7.556888461112976074e-01;0.000000000000000000e+00;1.000000000000000000e+00;0.000000000000000000e+00;3.000000000000000000e+00
-2.003090977668762207e-01;-2.931128978729248047e+00;4.803748428821563721e-01;0.000000000000000000e+00;1.000000000000000000e+00;0.000000000000000000e+00;3.000000000000000000e+00
1.510839313268661499e-01;-2.931128978729248047e+00;-1.051394581794738770e+00;0.000000000000000000e+00;1.000000000000000000e+00;0.000000000000000000e+00;3.000000000000000000e+00
-3.160512685775756836e+00;-2.931128978729248047e+00;-7.682529091835021973e-02;0.000000000000000000e+00;1.000000000000000000e+00;0.000000000000000000e+00;3.000000000000000000e+00
9.012886881828308105e-01;-2.931128978729248047e+00;-4.235340282320976257e-03;0.000000000000000000e+00;1.000000000000000000e+00;0.000000000000000000e+00;3.000000000000000000e+00
-3.467079997062683105e-01;-2.931128978729248047e+00;1.759010195732116699e+00;0.000000000000000000e+00;1.000000000000000000e+00;0.000000000000000000e+00;3.000000000000000000e+00
-1.109103560447692871e+00;-2.931128978729248047e+00;-7.856018841266632080e-03;0.000000000000000000e+00;1.000000000000000000e+00;0.000000000000000000e+00;3.000000000000000000e+00
-1.814595699310302734e+00;-2.931128978729248047e+00;-1.109493851661682129e+00;0.000000000000000000e+00;1.000000000000000000e+00;0.000000000000000000e+00;3.000000000000000000e+00
-2.469613552093505859e+00;-2.931128978729248047e+00;6.298065781593322754e-01;0.000000000000000000e+00;1.000000000000000000e+00;0.000000000000000000e+00;3.000000000000000000e+00
-2.554807186126708984e+00;-2.931128978729248047e+00;9.960334300994873047e-01;0.000000000000000000e+00;1.000000000000000000e+00;0.000000000000000000e+00;3.000000000000000000e+00
9.267762303352355957e-01;-2.931128978729248047e+00;-6.884927153587341309e-01;0.000000000000000000e+00;1.000000000000000000e+00;0.000000000000000000e+00;3.000000000000000000e+00
2.835298061370849609e+00;-2.931128978729248047e+00;2.204013466835021973e-01;0.000000000000000000e+00;1.000000000000000000e+00;0.000000000000000000e+00;3.000000000000000000e+00
7.622799873352050781e-01;-2.931128978729248047e+00;6.083268523216247559e-01;0.000000000000000000e+00;1.000000000000000000e+00;0.000000000000000000e+00;3.000000000000000000e+00
-1.345033764839172363e+00;-2.931128978729248047e+00;-1.575148940086364746e+00;0.000000000000000000e+00;1.000000000000000000e+00;0.000000000000000000e+00;3.000000000000000000e+00
-1.996477097272872925e-01;-2.931128978729248047e+00;-1.296771287918090820e+00;0.000000000000000000e+00;1.000000000000000000e+00;0.000000000000000000e+00;3.000000000000000000e+00
-5.152571573853492737e-02;-2.931128978729248047e+00;8.222516179084777832e-01;0.000000000000000000e+00;1.000000000000000000e+00;0.000000000000000000e+00;3.000000000000000000e+00
-2.444380521774291992e-01;-2.931128978729248047e+00;-6.011982560157775879e-01;0.000000000000000000e+00;1.000000000000000000e+00;0.000000000000000000e+00;3.000000000000000000e+00
-2.273085832595825195e+00;-2.931128978729248047e+00;1.552509546279907227e+00;0.000000000000000000e+00;1.000000000000000000e+00;0.000000000000000000e+00;3.000000000000000000e+00
2.020913124084472656e+00;-2.931128978729248047e+00;-8.664798140525817871e-01;0.000000000000000000e+00;1.000000000000000000e+00;0.000000000000000000e+00;3.000000000000000000e+00
8.690074831247329712e-02;-2.931128978729248047e+00;1.984653249382972717e-02;0.000000000000000000e+00;1.000000000000000000e+00;0.000000000000000000e+00;3.000000000000000000e+00
-2.563347578048706055e+00;-2.931128978729248047e+00;1.008034944534301758e+00;0.000000000000000000e+00;1.000000000000000000e+00;0.000000000000000000e+00;3.000000000000000000e+00
3.178814649581909180e+00;-2.931128978729248047e+00;6.957272291183471680e-01;0.000000000000000000e+00;1.000000000000000000e+00;0.000000000000000000e+00;3.000000000000000000e+00
-1.379426836967468262e+00;-2.931128978729248047e+00;1.701309531927108765e-01;0.000000000000000000e+00;1.000000000000000000e+00;0.000000000000000000e+00;3.000000000000000000e+00
2.396648883819580078e+00;-2.931128978729248047e+00;-6.242024898529052734e-01;0.000000000000000000e+00;1.000000000000000000e+00;0.000000000000000000e+00;3.000000000000000000e+00
-8.926916718482971191e-01;-2.931128978729248047e+00;-1.097391605377197266e+00;0.000000000000000000e+00;1.000000000000000000e+00;0.000000000000000000e+00;3.000000000000000000e+00
2.352895736694335938e+00;-2.931128978729248047e+00;-1.405326843261718750e+00;0.000000000000000000e+00;1.000000000000000000e+00;0.000000000000000000e+00;3.000000000000000000e+00
-4.977085888385772705e-01;-2.931128978729248047e+00;2.477273195981979370e-01;0.000000000000000000e+00;1.000000000000000000e+00;0.000000000000000000e+00;3.000000000000000000e+00
-1.153865575790405273e+00;-2.931128978729248047e+00;1.655506968498229980e+00;0.000000000000000000e+00;1.000000000000000000e+00;0.000000000000000000e+00;3.000000000000000000e+00
-2.431296557188034058e-01;-2.931128978729248047e+00;-1.001207470893859863e+00;0.000000000000000000e+00;1.000000000000000000e+00;0.000000000000000000e+00;3.000000000000000000e+00
-2.673433542251586914e+00;-2.931128978729248047e+00;1.222268223762512207e+00;0.000000000000000000e+00;1.000000000000000000e+00;0.000000000000000000e+00;3.000000000000000000e+00
-5.958216786384582520e-01;-2.931128978729248047e+00;8.870606422424316406e-01;0.000000000000000000e+00;1.000000000000000000e+00;0.000000000000000000e+00;3.000000000000000000e+00
-3.236308097839355469e-01;-2.931128978729248047e+00;1.384388685226440430e+00;0.000000000000000000e+00;1.000000000000000000e+00;0.000000000000000000e+00;3.000000000000000000e+00
2.695653438568115234e+00;-2.931128978729248047e+00;1.052758932113647461e+00;0.000000000000000000e+00;1.000000000000000000e+00;0.000000000000000000e+00;3.000000000000000000e+00
8.035357594490051270e-01;-2.931128978729248047e+00;-3.964922726154327393e-01;0.000000000000000000e+00;1.000000000000000000e+00;0.000000000000000000e+00;3.000000000000000000e+00
2.990595102310180664e+00;-2.931128978729248047e+00;3.023882210254669189e-01;0.000000000000000000e+00;1.000000000000000000e+00;0.000000000000000000e+00;3.000000000000000000e+00
-2.978772163391113281e+00;-2.931128978729248047e+00;8.280584812164306641e-01;0.000000000000000000e+00;1.000000000000000000e+00;0.000000000000000000e+00;3.000000000000000000e+00
9.010794162750244141e-01;-2.931128978729248047e+00;1.227630615234375000e+00;0.000000000000000000e+00;1.000000000000000000e+00;0.000000000000000000e+00;3.000000000000000000e+00
1.831644773483276367e+00;-2.931128978729248047e+00;-1.809484213590621948e-01;0.000000000000000000e+00;1.000000000000000000e+00;0.000000000000000000e+00;3.000000000000000000e+00
2.129371404647827148e+00;-2.931128978729248047e+00;-8.995189666748046875e-01;0.000000000000000000e+00;1.000000000000000000e+00;0.000000000000000000e+00;3.000000000000000000e+00
2.271592378616333008e+00;-2.931128978729248047e+00;-1.439546823501586914e+00;0.000000000000000000e+00;1.000000000000000000e+00;0.000000000000000000e+00;3.000000000000000000e+00
1.110459025949239731e-02;-2.931128978729248047e+00;-5.322539806365966797e-01;0.000000000000000000e+00;1.000000000000000000e+00;0.000000000000000000e+00;3.000000000000000000e+00
3.029740571975708008e+00;-2.931128978729248047e+00;-1.169139266014099121e+00;0.000000000000000000e+00;1.000000000000000000e+00;0.000000000000000000e+00;3.000000000000000000e+00
-6.520738005638122559e-01;-2.931128978729248047e+00;-5.895157456398010254e-01;0.000000000000000000e+00;1.000000000000000000e+00;0.000000000000000000e+00;3.000000000000000000e+00
2.882269918918609619e-01;-2.931128978729248047e+00;1.715218424797058105e+00;0.000000000000000000e+00;1.000000000000000000e+00;0.000000000000000000e+00;3.000000000000000000e+00
-2.185135364532470703e+00;-2.931128978729248047e+00;1.545616507530212402e+00;0.000000000000000000e+00;1.000000000000000000e+00;0.000000000000000000e+00;3.000000000000000000e+00
3.128195762634277344e+00;-2.931128978729248047e+00;-9.840947985649108887e-01;0.000000000000000000e+00;1.000000000000000000e+00;0.000000000000000000e+00;3.000000000000000000e+00
-2.053029537200927734e+00;-2.931128978729248047e+00;1.824731230735778809e-01;0.000000000000000000e+00;1.000000000000000000e+00;0.000000000000000000e+00;3.000000000000000000e+00
-2.278594255447387695e+00;-2.931128978729248047e+00;4.006260335445404053e-01;0.000000000000000000e+00;1.000000000000000000e+00;0.000000000000000000e+00;3.000000000000000000e+00
-6.102136373519897461e-01;-2.931128978729248047e+00;1.082603096961975098e+00;0.000000000000000000e+00;1.000000000000000000e+00;0.000000000000000000e+00;3.000000000000000000e+00
3.054821729660034180e+00;-2.931128978729248047e+00;-1.473685652017593384e-01;0.000000000000000000e+00;1.000000000000000000e+00;0.000000000000000000e+00;3.000000000000000000e+00
-2.104469239711761475e-01;-2.931128978729248047e+00;4.787287488579750061e-02;0.000000000000000000e+00;1.000000000000000000e+00;0.000000000000000000e+00;3.000000000000000000e+00
2.322645902633666992e+00;-2.931128978729248047e+00;-8.125289678573608398e-01;0.000000000000000000e+00;1.000000000000000000e+00;0.000000000000000000e+00;3.000000000000000000e+00
-8.782606124877929688e-01;-2.931128978729248047e+00;-1.133231043815612793e+00;0.000000000000000000e+00;1.000000000000000000e+00;0.000000000000000000e+00;3.000000000000000000e+00
3.090114593505859375e-01;-2.931128978729248047e+00;-8.844388276338577271e-02;0.000000000000000000e+00;1.000000000000000000e+00;0.000000000000000000e+00;3.000000000000000000e+00
-2.647675275802612305e-01;-2.931128978729248047e+00;-1.696246147155761719e+00;0.000000000000000000e+00;1.000000000000000000e+00;0.000000000000000000e+00;3.000000000000000000e+00
1.939825654029846191e+00;-2.931128978729248047e+00;7.446421384811401367e-01;0.000000000000000000e+00;1.000000000000000000e+00;0.000000000000000000e+00;3.000000000000000000e+00
4.840608835220336914e-01;-2.931128978729248047e+00;4.090089797973632812e-01;0.000000000000000000e+00;1.000000000000000000e+00;0.000000000000000000e+00;3.000000000000000000e+00
-1.332935690879821777e+00;-2.931128978729248047e+00;9.047651290893554688e-02;0.000000000000000000e+00;1.000000000000000000e+00;0.000000000000000000e+00;3.000000000000000000e+00
-1.054898381233215332e+00;-2.931128978729248047e+00;1.491669774055480957e+00;0.000000000000000000e+00;1.000000000000000000e+00;0.000000000000000000e+00;3.000000000000000000e+00
1.748526096343994141e+00;-2.931128978729248047e+00;-2.797900140285491943e-01;0.000000000000000000e+00;1.000000000000000000e+00;0.000000000000000000e+00;3.000000000000000000e+00
2.866306543350219727e+00;-2.931128978729248047e+00;1.321865797042846680e+00;0.000000000000000000e+00;1.000000000000000000e+00;0.000000000000000000e+00;3.000000000000000000e+00
1.191336154937744141e+00;-2.931128978729248047e+00;-2.474331669509410858e-02;0.000000000000000000e+00;1.000000000000000000e+00;0.000000000000000000e+00;3.000000000000000000e+00
9.061868786811828613e-01;-2.931128978729248047e+00;-6.175034865736961365e-02;0.000000000000000000e+00;1.000000000000000000e+00;0.000000000000000000e+00;3.000000000000000000e+00
1.472438722848892212e-01;-2.931128978729248047e+00;-1.502909421920776367e+00;0.000000000000000000e+00;1.000000000000000000e+00;0.000000000000000000e+00;3.000000000000000000e+00
-1.492770075798034668e+00;-2.931128978729248047e+00;-3.778189122676849365e-01;0.000000000000000000e+00;1.000000000000000000e+00;0.000000000000000000e+00;3.000000000000000000e+00
2.128962278366088867e+00;-2.931128978729248047e+00;1.116257071495056152e+00;0.000000000000000000e+00;1.000000000000000000e+00;0.000000000000000000e+00;3.000000000000000000e+00
-1.618549704551696777e+00;-2.931128978729248047e+00;1.745681166648864746e+00;0.000000000000000000e+00;1.000000000000000000e+00;0.000000000000000000e+00;3.000000000000000000e+00
-1.950720191001892090e+00;-2.931128978729248047e+00;-6.276443600654602051e-01;0.000000000000000000e+00;1.000000000000000000e+00;0.000000000000000000e+00;3.000000000000000000e+00
7.743768095970153809e-01;-2.931128978729248047e+00;-4.874771833419799805e-01;0.000000000000000000e+00;1.000000000000000000e+00;0.000000000000000000e+00;3.000000000000000000e+00
1.058688282966613770e+00;-2.931128978729248047e+00;4.719955921173095703e-01;0.000000000000000000e+00;1.000000000000000000e+00;0.000000000000000000e+00;3.000000000000000000e+00
-1.020814657211303711e+00;-2.931128978729248047e+00;6.619716286659240723e-01;0.000000000000000000e+00;1.000000000000000000e+00;0.000000000000000000e+00;3.000000000000000000e+00
-2.222660541534423828e+00;-2.931128978729248047e+00;-1.241509079933166504e+00;0.000000000000000000e+00;1.000000000000000000e+00;0.000000000000000000e+00;3.000000000000000000e+00
2.128068685531616211e+00;-2.931128978729248047e+00;1.396322011947631836e+00;0.000000000000000000e+00;1.000000000000000000e+00;0.000000000000000000e+00;3.000000000000000000e+00
-2.161818265914916992e+00;-2.931128978729248047e+00;5.322327613830566406e-01;0.000000000000000000e+00;1.000000000000000000e+00;0.000000000000000000e+00;3.000000000000000000e+00
2.220620155334472656e+00;-2.931128978729248047e+00;-4.867237806320190430e-01;0.000000000000000000e+00;1.000000000000000000e+00;0.000000000000000000e+00;3.000000000000000000e+00
-1.982938945293426514e-01;-2.931128978729248047e+00;4.982902407646179199e-01;0.000000000000000000e+00;1.000000000000000000e+00;0.000000000000000000e+00;3.000000000000000000e+00
-2.735698461532592773e+00;-2.931128978729248047e+00;8.340076804161071777e-01;0.000000000000000000e+00;1.000000000000000000e+00;0.000000000000000000e+00;3.000000000000000000e+00
1.279028296470642090e+00;-2.931128978729248047e+00;-9.940026998519897461e-01;0.000000000000000000e+00;1.000000000000000000e+00;0.000000000000000000e+00;3.000000000000000000e+00
-7.408085465431213379e-01;-2.931128978729248047e+00;7.980871200561523438e-01;0.000000000000000000e+00;1.000000000000000000e+00;0.000000000000000000e+00;3.000000000000000000e+00
-6.060037612915039062e-01;-2.931128978729248047e+00;8.170650601387023926e-01;0.000000000000000000e+00;1.000000000000000000e+00;0.000000000000000000e+00;3.000000000000000000e+00
-1.182253837585449219e+00;-2.931128978729248047e+00;-7.960200309753417969e-01;0.000000000000000000e+00;1.000000000000000000e+00;0.000000000000000000e+00;3.000000000000000000e+00
1.225875020027160645e+00;-2.931128978729248047e+00;1.324023008346557617e+00;0.000000000000000000e+00;1.000000000000000000e+00;0.000000000000000000e+00;3.000000000000000000e+00
2.799547672271728516e+00;-2.931128978729248047e+00;-1.101591944694519043e+00;0.000000000000000000e+00;1.000000000000000000e+00;0.000000000000000000e+00;3.000000000000000000e+00
1.577176213264465332e+00;-2.931128978729248047e+00;-1.598304510116577148e+00;0.000000000000000000e+00;1.000000000000000000e+00;0.000000000000000000e+00;3.000000000000000000e+00
-1.698913335800170898e+00;-2.931128978729248047e+00;-1.234912037849426270e+00;0.000000000000000000e+00;1.000000000000000000e+00;0.000000000000000000e+00;3.000000000000000000e+00
-1.989258289337158203e+00;-2.931128978729248047e+00;9.460625648498535156e-01;0.000000000000000000e+00;1.000000000000000000e+00;0.000000000000000000e+00;3.000000000000000000e+00
-1.412483572959899902e+00;-2.931128978729248047e+00;-1.695535778999328613e+00;0.000000000000000000e+00;1.000000000000000000e+00;0.000000000000000000e+00;3.000000000000000000e+00
2.670612335205078125e+00;-2.931128978729248047e+00;1.715553164482116699e+00;0.000000000000000000e+00;1.000000000000000000e+00;0.000000000000000000e+00;3.000000000000000000e+00
-1.295831084251403809e+00;-2.931128978729248047e+00;-1.240661382675170898e+00;0.000000000000000000e+00;1.000000000000000000e+00;0.000000000000000000e+00;3.000000000000000000e+00
3.465624749660491943e-01;-2.931128978729248047e+00;8.657737970352172852e-01;0.000000000000000000e+00;1.000000000000000000e+00;0.000000000000000000e+00;3.000000000000000000e+00
2.757568955421447754e-01;-2.931128978729248047e+00;-1.470254659652709961e+00;0.000000000000000000e+00;1.000000000000000000e+00;0.000000000000000000e+00;3.000000000000000000e+00
1.665962696075439453e+00;-2.931128978729248047e+00;-1.770044922828674316e+00;0.000000000000000000e+00;1.000000000000000000e+00;0.000000000000000000e+00;3.000000000000000000e+00
2.779299616813659668e-01;-2.931128978729248047e+00;-1.510988593101501465e+00;0.000000000000000000e+00;1.000000000000000000e+00;0.000000000000000000e+00;3.000000000000000000e+00
1.835059523582458496e+00;-2.931128978729248047e+00;1.490122437477111816e+00;0.000000000000000000e+00;1.000000000000000000e+00;0.000000000000000000e+00;3.000000000000000000e+00
-2.936087369918823242e+00;-2.931128978729248047e+00;-1.608846545219421387e+00;0.000000000000000000e+00;1.000000000000000000e+00;0.000000000000000000e+00;3.000000000000000000e+00
-9.375587105751037598e-02;-2.931128978729248047e+00;-1.444486498832702637e+00;0.000000000000000000e+00;1.000000000000000000e+00;0.000000000000000000e+00;3.000000000000000000e+00
6.081814169883728027e-01;-2.931128978729248047e+00;1.280510187149047852e+00;0.000000000000000000e+00;1.000000000000000000e+00;0.000000000000000000e+00;3.000000000000000000e+00
1.212473154067993164e+00;-2.931128978729248047e+00;1.334161877632141113e+00;0.000000000000000000e+00;1.000000000000000000e+00;0.000000000000000000e+00;3.000000000000000000e+00
1.381805181503295898e+00;-2.931128978729248047e+00;1.180109143257141113e+00;0.000000000000000000e+00;1.000000000000000000e+00;0.000000000000000000e+00;3.000000000000000000e+00
-1.021609425544738770e+00;-2.931128978729248047e+00;-1.679625988006591797e+00;0.000000000000000000e+00;1.000000000000000000e+00;0.000000000000000000e+00;3.000000000000000000e+00
1.351570963859558105e+00;-2.931128978729248047e+00;6.523476243019104004e-01;0.000000000000000000e+00;1.000000000000000000e+00;0.000000000000000000e+00;3.000000000000000000e+00
5.889273881912231445e-01;-2.931128978729248047e+00;-8.119946718215942383e-01;0.000000000000000000e+00;1.000000000000000000e+00;0.000000000000000000e+00;3.000000000000000000e+00
1.436136722564697266e+00;-2.931128978729248047e+00;2.311135977506637573e-01;0.000000000000000000e+00;1.000000000000000000e+00;0.000000000000000000e+00;3.000000000000000000e+00
-1.421282291412353516e+00;-2.931128978729248047e+00;1.331201314926147461e+00;0.000000000000000000e+00;1.000000000000000000e+00;0.000000000000000000e+00;3.000000000000000000e+00
3.087883591651916504e-01;-2.931128978729248047e+00;-1.185501694679260254e+00;0.000000000000000000e+00;1.000000000000000000e+00;0.000000000000000000e+00;3.000000000000000000e+00
-3.157957077026367188e+00;-2.931128978729248047e+00;2.074568718671798706e-01;0.000000000000000000e+00;1.000000000000000000e+00;0.000000000000000000e+00;3.000000000000000000e+00
1.084926962852478027e+00;-2.931128978729248047e+00;-4.605924785137176514e-01;0.000000000000000000e+00;1.000000000000000000e+00;0.000000000000000000e+00;3.000000000000000000e+00
-9.535404443740844727e-01;-2.931128978729248047e+00;2.862174212932586670e-01;0.000000000000000000e+00;1.000000000000000000e+00;0.000000000000000000e+00;3.000000000000000000e+00
-1.196477174758911133e+00;-2.931128978729248047e+00;-1.438473224639892578e+00;0.000000000000000000e+00;1.000000000000000000e+00;0.000000000000000000e+00;3.000000000000000000e+00
2.834127187728881836e+00;-2.931128978729248047e+00;3.376202285289764404e-01;0.000000000000000000e+00;1.000000000000000000e+00;0.000000000000000000e+00;3.000000000000000000e+00
-3.008821249008178711e+00;-2.931128978729248047e+00;1.574110031127929688e+00;0.000000000000000000e+00;1.000000000000000000e+00;0.000000000000000000e+00;3.000000000000000000e+00
2.481730461120605469e+00;-2.931128978729248047e+00;1.393307447433471680e+00;0.000000000000000000e+00;1.000000000000000000e+00;0.000000000000000000e+00;3.000000000000000000e+00
2.922827243804931641e+00;-2.931128978729248047e+00;9.006611108779907227e-01;0.000000000000000000e+00;1.000000000000000000e+00;0.000000000000000000e+00;3.000000000000000000e+00
9.204885363578796387e-01;-2.931128978729248047e+00;-6.588314175605773926e-01;0.000000000000000000e+00;1.000000000000000000e+00;0.000000000000000000e+00;3.000000000000000000e+00
1.606694221496582031e+00;-2.931128978729248047e+00;-2.541815936565399170e-01;0.000000000000000000e+00;1.000000000000000000e+00;0.000000000000000000e+00;3.000000000000000000e+00
-1.588806390762329102e+00;-2.931128978729248047e+00;-5.325090885162353516e-01;0.000000000000000000e+00;1.000000000000000000e+00;0.000000000000000000e+00;3.000000000000000000e+00
-2.869685173034667969e+00;-2.931128978729248047e+00;1.149803876876831055e+00;0.000000000000000000e+00;1.000000000000000000e+00;0.000000000000000000e+00;3.000000000000000000e+00
-1.020731806755065918e+00;-2.931128978729248047e+00;1.675617456436157227e+00;0.000000000000000000e+00;1.000000000000000000e+00;0.000000000000000000e+00;3.000000000000000000e+00
1.249327063560485840e+00;-2.931128978729248047e+00;1.102112889289855957e+00;0.000000000000000000e+00;1.000000000000000000e+00;0.000000000000000000e+00;3.000000000000000000e+00
2.257834196090698242e+00;-2.931128978729248047e+00;-1.545721888542175293e+00;0.000000000000000000e+00;1.000000000000000000e+00;0.000000000000000000e+00;3.000000000000000000e+00
-5.060162395238876343e-03;-2.931128978729248047e+00;1.682021975517272949e+00;0.000000000000000000e+00;1.000000000000000000e+00;0.000000000000000000e+00;3.000000000000000000e+00
-1.691942453384399414e+00;-2.931128978729248047e+00;1.068206429481506348e+00;0.000000000000000000e+00;1.000000000000000000e+00;0.000000000000000000e+00;3.000000000000000000e+00
2.196200370788574219e+00;-2.931128978729248047e+00;-5.858666896820068359e-01;0.000000000000000000e+00;1.000000000000000000e+00;0.000000000000000000e+00;3.000000000000000000e+00
1.988700985908508301e+00;-2.931128978729248047e+00;-7.758667469024658203e-01;0.000000000000000000e+00;1.000000000000000000e+00;0.000000000000000000e+00;3.000000000000000000e+00
-1.724241256713867188e+00;-2.931128978729248047e+00;-1.183764696121215820e+00;0.000000000000000000e+00;1.000000000000000000e+00;0.000000000000000000e+00;3.000000000000000000e+00
-1.371315956115722656e+00;-2.931128978729248047e+00;1.097196340560913086e+00;0.000000000000000000e+00;1.000000000000000000e+00;0.000000000000000000e+00;3.000000000000000000e+00
2.634248495101928711e+00;-2.931128978729248047e+00;-1.002407193183898926e+00;0.000000000000000000e+00;1.000000000000000000e+00;0.000000000000000000e+00;3.000000000000000000e+00
-2.235512971878051758e+00;-2.931128978729248047e+00;-1.192377924919128418e+00;0.000000000000000000e+00;1.000000000000000000e+00;0.000000000000000000e+00;3.000000000000000000e+00
-1.847364306449890137e-01;-2.931128978729248047e+00;2.458253353834152222e-01;0.000000000000000000e+00;1.000000000000000000e+00;0.000000000000000000e+00;3.000000000000000000e+00
5.906615257263183594e-01;-2.931128978729248047e+00;-4.085606932640075684e-01;0.000000000000000000e+00;1.000000000000000000e+00;0.000000000000000000e+00;3.000000000000000000e+00
2.406587839126586914e+00;-2.931128978729248047e+00;-2.479152977466583252e-01;0.000000000000000000e+00;1.000000000000000000e+00;0.000000000000000000e+00;3.000000000000000000e+00
-6.139707565307617188e-01;-2.931128978729248047e+00;1.886069625616073608e-01;0.000000000000000000e+00;1.000000000000000000e+00;0.000000000000000000e+00;3.000000000000000000e+00
-2.046873569488525391e+00;-2.931128978729248047e+00;-5.230223536491394043e-01;0.000000000000000000e+00;1.000000000000000000e+00;0.000000000000000000e+00;3.000000000000000000e+00
1.641711115837097168e+00;-2.931128978729248047e+00;1.741160273551940918e+00;0.000000000000000000e+00;1.000000000000000000e+00;0.000000000000000000e+00;3.000000000000000000e+00
-4.294074773788452148e-01;-2.931128978729248047e+00;8.666118979454040527e-01;0.000000000000000000e+00;1.000000000000000000e+00;0.000000000000000000e+00;3.000000000000000000e+00
-7.954274415969848633e-01;-2.931128978729248047e+00;-5.760400891304016113e-01;0.000000000000000000e+00;1.000000000000000000e+00;0.000000000000000000e+00;3.000000000000000000e+00
1.227723836898803711e+00;-2.931128978729248047e+00;1.757892251014709473e+00;0.000000000000000000e+00;1.000000000000000000e+00;0.000000000000000000e+00;3.000000000000000000e+00
2.435239553451538086e+00;-2.931128978729248047e+00;6.272560954093933105e-01;0.000000000000000000e+00;1.000000000000000000e+00;0.000000000000000000e+00;3.000000000000000000e+00
-4.124948680400848389e-01;-2.931128978729248047e+00;-1.545267820358276367e+00;0.000000000000000000e+00;1.000000000000000000e+00;0.000000000000000000e+00;3.000000000000000000e+00
-2.805411100387573242e+00;-2.931128978729248047e+00;-7.929030060768127441e-01;0.000000000000000000e+00;1.000000000000000000e+00;0.000000000000000000e+00;3.000000000000000000e+00
2.680231571197509766e+00;-2.931128978729248047e+00;-1.052918657660484314e-01;0.000000000000000000e+00;1.000000000000000000e+00;0.000000000000000000e+00;3.000000000000000000e+00
4.717755913734436035e-01;-2.931128978729248047e+00;2.044799923896789551e-01;0.000000000000000000e+00;1.000000000000000000e+00;0.000000000000000000e+00;3.000000000000000000e+00
7.254748940467834473e-01;-2.931128978729248047e+00;1.540632247924804688e+00;0.000000000000000000e+00;1.000000000000000000e+00;0.000000000000000000e+00;3.000000000000000000e+00
-2.658489227294921875e+00;-2.931128978729248047e+00;-1.649884879589080811e-01;0.000000000000000000e+00;1.000000000000000000e+00;0.000000000000000000e+00;3.000000000000000000e+00
7.131558656692504883e-01;-2.931128978729248047e+00;1.649756908416748047e+00;0.000000000000000000e+00;1.000000000000000000e+00;0.000000000000000000e+00;3.000000000000000000e+00
-1.028990864753723145e+00;-2.931128978729248047e+00;-3.423530757427215576e-01;0.000000000000000000e+00;1.000000000000000000e+00;0.000000000000000000e+00;3.000000000000000000e+00
1.918941140174865723e+00;-2.931128978729248047e+00;-2.103107282891869545e-03;0.000000000000000000e+00;1.000000000000000000e+00;0.000000000000000000e+00;3.000000000000000000e+00
-2.381743431091308594e+00;-2.931128978729248047e+00;-8.222028017044067383e-01;0.000000000000000000e+00;1.000000000000000000e+00;0.000000000000000000e+00;3.000000000000000000e+00
2.633340358734130859e+00;-2.931128978729248047e+00;-4.194410741329193115e-01;0.000000000000000000e+00;1.000000000000000000e+00;0.000000000000000000e+00;3.000000000000000000e+00
-1.033504128456115723e+00;-2.931128978729248047e+00;-7.862064987421035767e-02;0.000000000000000000e+00;1.000000000000000000e+00;0.000000000000000000e+00;3.000000000000000000e+00
3.074078559875488281e-01;-2.931128978729248047e+00;-2.757298350334167480e-01;0.000000000000000000e+00;1.000000000000000000e+00;0.000000000000000000e+00;3.000000000000000000e+00
-1.097137808799743652e+00;-2.931128978729248047e+00;-1.297169804573059082e+00;0.000000000000000000e+00;1.000000000000000000e+00;0.000000000000000000e+00;3.000000000000000000e+00
-1.096300601959228516e+00;-2.931128978729248047e+00;1.448398828506469727e+00;0.000000000000000000e+00;1.000000000000000000e+00;0.000000000000000000e+00;3.000000000000000000e+00
2.882911205291748047e+00;-2.931128978729248047e+00;6.599636077880859375e-01;0.000000000000000000e+00;1.000000000000000000e+00;0.000000000000000000e+00;3.000000000000000000e+00
1.099396824836730957e+00;-2.931128978729248047e+00;7.256631255149841309e-01;0.000000000000000000e+00;1.000000000000000000e+00;0.000000000000000000e+00;3.000000000000000000e+00
-1.749117970466613770e+00;-2.931128978729248047e+00;1.896291673183441162e-01;0.000000000000000000e+00;1.000000000000000000e+00;0.000000000000000000e+00;3.000000000000000000e+00
-2.066395759582519531e+00;-2.931128978729248047e+00;1.410047531127929688e+00;0.000000000000000000e+00;1.000000000000000000e+00;0.000000000000000000e+00;3.000000000000000000e+00
-2.334046363830566406e+00;-2.931128978729248047e+00;6.492131948471069336e-01;0.000000000000000000e+00;1.000000000000000000e+00;0.000000000000000000e+00;3.000000000000000000e+00
-2.559405088424682617e+00;-2.931128978729248047e+00;1.680731654167175293e+00;0.000000000000000000e+00;1.000000000000000000e+00;0.000000000000000000e+00;3.000000000000000000e+00
-2.628449440002441406e+00;-2.931128978729248047e+00;1.728881001472473145e+00;0.000000000000000000e+00;1.000000000000000000e+00;0.000000000000000000e+00;3.000000000000000000e+00
-1.012428283691406250e+00;-2.931128978729248047e+00;-1.644666671752929688e+00;0.000000000000000000e+00;1.000000000000000000e+00;0.000000000000000000e+00;3.000000000000000000e+00
2.974784612655639648e+00;-2.931128978729248047e+00;5.609191060066223145e-01;0.000000000000000000e+00;1.000000000000000000e+00;0.000000000000000000e+00;3.000000000000000000e+00
-3.473140597343444824e-01;-2.931128978729248047e+00;-8.059040904045104980e-01;0.000000000000000000e+00;1.000000000000000000e+00;0.000000000000000000e+00;3.000000000000000000e+00
-9.322898387908935547e-01;-2.931128978729248047e+00;1.210978507995605469e+00;0.000000000000000000e+00;1.000000000000000000e+00;0.000000000000000000e+00;3.000000000000000000e+00
2.508488893508911133e+00;-2.931128978729248047e+00;-1.717566609382629395e+00;0.000000000000000000e+00;1.000000000000000000e+00;0.000000000000000000e+00;3.000000000000000000e+00
3.178118944168090820e+00;-2.931128978729248047e+00;1.543293356895446777e+00;0.000000000000000000e+00;1.000000000000000000e+00;0.000000000000000000e+00;3.000000000000000000e+00
-2.853431940078735352e+00;-2.931128978729248047e+00;-2.740653157234191895e-01;0.000000000000000000e+00;1.000000000000000000e+00;0.000000000000000000e+00;3.000000000000000000e+00
-1.542753130197525024e-01;-2.931128978729248047e+00;1.310284018516540527e+00;0.000000000000000000e+00;1.000000000000000000e+00;0.000000000000000000e+00;3.000000000000000000e+00
2.389053821563720703e+00;-2.931128978729248047e+00;7.079757004976272583e-02;0.000000000000000000e+00;1.000000000000000000e+00;0.000000000000000000e+00;3.000000000000000000e+00
-3.049845933914184570e+00;-2.931128978729248047e+00;1.129672408103942871e+00;0.000000000000000000e+00;1.000000000000000000e+00;0.000000000000000000e+00;3.000000000000000000e+00
-2.102304458618164062e+00;-2.931128978729248047e+00;-1.583411097526550293e+00;0.000000000000000000e+00;1.000000000000000000e+00;0.000000000000000000e+00;3.000000000000000000e+00
1.593298166990280151e-01;-2.931128978729248047e+00;-1.042781323194503784e-01;0.000000000000000000e+00;1.000000000000000000e+00;0.000000000000000000e+00;3.000000000000000000e+00
6.410372257232666016e-01;-2.931128978729248047e+00;-5.572661757469177246e-01;0.000000000000000000e+00;1.000000000000000000e+00;0.000000000000000000e+00;3.000000000000000000e+00
-3.488887250423431396e-01;-2.931128978729248047e+00;1.729534745216369629e+00;0.000000000000000000e+00;1.000000000000000000e+00;0.000000000000000000e+00;3.000000000000000000e+00
1.580479502677917480e+00;-2.931128978729248047e+00;1.830309778451919556e-01;0.000000000000000000e+00;1.000000000000000000e+00;0.000000000000000000e+00;3.000000000000000000e+00
-2.875898838043212891e+00;-2.931128978729248047e+00;3.660836517810821533e-01;0.000000000000000000e+00;1.000000000000000000e+00;0.000000000000000000e+00;3.000000000000000000e+00
-6.589087247848510742e-01;-2.931128978729248047e+00;4.641811549663543701e-01;0.000000000000000000e+00;1.000000000000000000e+00;0.000000000000000000e+00;3.000000000000000000e+00
2.868224620819091797e+00;-2.931128978729248047e+00;-1.584441423416137695e+00;0.000000000000000000e+00;1.000000000000000000e+00;0.000000000000000000e+00;3.000000000000000000e+00
-2.114693880081176758e+00;-2.931128978729248047e+00;-1.328840613365173340e+00;0.000000000000000000e+00;1.000000000000000000e+00;0.000000000000000000e+00;3.000000000000000000e+00
3.948468863964080811e-01;-2.931128978729248047e+00;-1.889097094535827637e-01;0.000000000000000000e+00;1.000000000000000000e+00;0.000000000000000000e+00;3.000000000000000000e+00
-1.751573801040649414e+00;-2.931128978729248047e+00;-1.433260440826416016e+00;0.000000000000000000e+00;1.000000000000000000e+00;0.000000000000000000e+00;3.000000000000000000e+00
1.088973358273506165e-01;-2.931128978729248047e+00;-6.060596108436584473e-01;0.000000000000000000e+00;1.000000000000000000e+00;0.000000000000000000e+00;3.000000000000000000e+00
-1.107903480529785156e+00;-2.931128978729248047e+00;-2.706317305564880371e-01;0.000000000000000000e+00;1.000000000000000000e+00;0.000000000000000000e+00;3.000000000000000000e+00
2.106396436691284180e+00;-2.931128978729248047e+00;4.280619621276855469e-01;0.000000000000000000e+00;1.000000000000000000e+00;0.000000000000000000e+00;3.000000000000000000e+00
1.683051347732543945e+00;-2.931128978729248047e+00;-1.680232763290405273e+00;0.000000000000000000e+00;1.000000000000000000e+00;0.000000000000000000e+00;3.000000000000000000e+00
-8.623226284980773926e-01;-2.931128978729248047e+00;1.256464838981628418e+00;0.000000000000000000e+00;1.000000000000000000e+00;0.000000000000000000e+00;3.000000000000000000e+00
1.044263124465942383e+00;-2.931128978729248047e+00;-1.327877998352050781e+00;0.000000000000000000e+00;1.000000000000000000e+00;0.000000000000000000e+00;3.000000000000000000e+00
-5.473345518112182617e-01;-2.931128978729248047e+00;-1.037316679954528809e+00;0.000000000000000000e+00;1.000000000000000000e+00;0.000000000000000000e+00;3.000000000000000000e+00
-3.141942739486694336e+00;-2.931128978729248047e+00;-2.539581358432769775e-01;0.000000000000000000e+00;1.000000000000000000e+00;0.000000000000000000e+00;3.000000000000000000e+00
-9.432312846183776855e-01;-2.931128978729248047e+00;-1.538377881050109863e+00;0.000000000000000000e+00;1.000000000000000000e+00;0.000000000000000000e+00;3.000000000000000000e+00
1.583893179893493652e+00;-2.931128978729248047e+00;1.601950168609619141e+00;0.000000000000000000e+00;1.000000000000000000e+00;0.000000000000000000e+00;3.000000000000000000e+00
-2.199873924255371094e+00;-2.931128978729248047e+00;-2.199022769927978516e-01;0.000000000000000000e+00;1.000000000000000000e+00;0.000000000000000000e+00;3.000000000000000000e+00
1.702203035354614258e+00;-2.931128978729248047e+00;-1.383120775222778320e+00;0.000000000000000000e+00;1.000000000000000000e+00;0.000000000000000000e+00;3.000000000000000000e+00
2.651470661163330078e+00;-2.931128978729248047e+00;-9.997425675392150879e-01;0.000000000000000000e+00;1.000000000000000000e+00;0.000000000000000000e+00;3.000000000000000000e+00
1.964352011680603027e+00;-2.931128978729248047e+00;7.665511965751647949e-02;0.000000000000000000e+00;1.000000000000000000e+00;0.000000000000000000e+00;3.000000000000000000e+00
2.019498348236083984e+00;-2.931128978729248047e+00;4.547594487667083740e-01;0.000000000000000000e+00;1.000000000000000000e+00;0.000000000000000000e+00;3.000000000000000000e+00
3.085201025009155273e+00;-2.931128978729248047e+00;-1.201357722282409668e+00;0.000000000000000000e+00;1.000000000000000000e+00;0.000000000000000000e+00;3.000000000000000000e+00
2.078873395919799805e+00;-2.931128978729248047e+00;3.512589931488037109e-01;0.000000000000000000e+00;1.000000000000000000e+00;0.000000000000000000e+00;3.000000000000000000e+00
-2.546211242675781250e+00;-2.931128978729248047e+00;-1.694713234901428223e+00;0.000000000000000000e+00;1.000000000000000000e+00;0.000000000000000000e+00;3.000000000000000000e+00
1.639435291290283203e+00;-2.931128978729248047e+00;-6.889274120330810547e-01;0.000000000000000000e+00;1.000000000000000000e+00;0.000000000000000000e+00;3.000000000000000000e+00
-2.233093500137329102e+00;-2.931128978729248047e+00;1.427845835685729980e+00;0.000000000000000000e+00;1.000000000000000000e+00;0.000000000000000000e+00;3.000000000000000000e+00
1.323282718658447266e+00;-2.931128978729248047e+00;-3.306859135627746582e-01;0.000000000000000000e+00;1.000000000000000000e+00;0.000000000000000000e+00;3.000000000000000000e+00
1.245032310485839844e+00;-2.931128978729248047e+00;-1.127659305930137634e-01;0.000000000000000000e+00;1.000000000000000000e+00;0.000000000000000000e+00;3.000000000000000000e+00
1.438708305358886719e+00;-2.931128978729248047e+00;-8.560369610786437988e-01;0.000000000000000000e+00;1.000000000000000000e+00;0.000000000000000000e+00;3.000000000000000000e+00
-3.124254941940307617e+00;-2.931128978729248047e+00;-3.493639826774597168e-01;0.000000000000000000e+00;1.000000000000000000e+00;0.000000000000000000e+00;3.000000000000000000e+00
-1.170119285583496094e+00;-2.931128978729248047e+00;2.694699764251708984e-01;0.000000000000000000e+00;1.000000000000000000e+00;0.000000000000000000e+00;3.000000000000000000e+00
2.320224285125732422e+00;-2.931128978729248047e+00;-1.307229757308959961e+00;0.000000000000000000e+00;1.000000000000000000e+00;0.000000000000000000e+00;3.000000000000000000e+00
-1.107491970062255859e+00;-2.931128978729248047e+00;-5.804309248924255371e-01;0.000000000000000000e+00;1.000000000000000000e+00;0.000000000000000000e+00;3.000000000000000000e+00
-3.074765682220458984e+00;-2.931128978729248047e+00;9.625571966171264648e-01;0.000000000000000000e+00;1.000000000000000000e+00;0.000000000000000000e+00;3.000000000000000000e+00
-2.463867187500000000e+00;-2.931128978729248047e+00;-1.565497756004333496e+00;0.000000000000000000e+00;1.000000000000000000e+00;0.000000000000000000e+00;3.000000000000000000e+00
